ply
format ascii 1.0
element vertex 171
property double x
property double y
property double z
end_header
0.403411837427981 -0.133352720052740 2.323793609788111
0.395813729550192 -0.196030999698606 2.347079728640241
0.419377102419323 -0.190158902432917 2.357424376278886
0.425924129404978 -0.181335166339208 2.374312077896845
0.425759677992781 -0.185880500285351 2.374470192663657
0.428458089305166 -0.158521090933352 2.398743221147228
0.431700598425760 -0.165759429914821 2.400124210680351
0.427149569027650 -0.148822958633203 2.400034692792556
0.396475105856750 0.084049369342854 2.370681674679107
0.396009914552287 0.087826892468279 2.371024860121074
0.375431938311081 0.108545035878853 2.304738166971838
0.250543386618374 0.128133110169526 2.037342382969671
0.396130889437799 0.091574938809397 2.371407876014908
0.394788498204428 0.110256172942695 2.372175718270760
0.183566865046262 0.100740420779533 2.449175188826386
0.183252571742276 0.109703865136816 2.449828367703657
0.183239609250442 0.118786637350024 2.450967156020466
0.183168460125634 0.127960863659404 2.452081201193378
0.182992592667674 0.132548781469225 2.452559568726441
0.276200321524284 0.148582718756296 2.083935340551452
0.026253278725759 0.168239641359969 2.194313117016845
0.021923100472551 0.176131536406892 2.195853629438074
0.157837020833552 0.145287869327606 2.435881882109415
0.182642580214252 0.137112974522488 2.452679663509566
0.040797104539099 0.180032517531774 2.201152887625422
0.044182427390038 0.183997732776138 2.201101188522558
0.049871930781978 0.186968871919884 2.200993968215460
0.208084647027375 0.184991243102076 2.012978227261379
0.212408135013239 0.185457817407942 2.014882645035847
0.200073222962727 0.184706017969372 2.021211660747851
0.229223191364226 0.187034753067941 2.014581703975200
0.021294590873432 0.196979361322392 2.197336810203762
0.237615996864205 0.188233915669026 2.022923162411919
0.209635129645985 0.207390468447097 2.011955711643200
0.224353568788386 0.208450551421793 2.013332677893072
0.217856908191225 0.208538648596286 2.026221444195536
0.205718545752484 0.208775493833541 2.027021472666767
0.202276834171576 0.208625425633230 2.027982029851136
0.228490427050891 0.211821264750804 2.016285159106516
0.024529311182824 0.203416766604444 2.201957744023055
0.027514374634350 0.209112870684466 2.202678312772430
0.028288082069511 0.207836473753415 2.207068712878274
0.031115609114333 0.213406033225352 2.208724291008096
0.060909119395576 0.211358889739554 2.210543012996137
0.075209137817518 0.212577338921288 2.218339719835846
0.081579348101868 0.214269227122119 2.220256207426315
0.150442314710018 0.214749706877622 2.463390429282769
0.241057783880724 0.213490019114287 2.353296696101871
0.256794878824660 0.208352898965189 2.263082171544219
0.057545383935744 0.215542141404461 2.209979754336674
0.089555775951734 0.215921460909446 2.220718280695119
0.208425192209431 0.215431073837289 2.101376443811066
0.159764094671980 0.215717078481439 2.465622744043100
0.033990497663214 0.222045088370099 2.205314765634131
0.101618180193867 0.221279257755873 2.267004463464820
0.099438388036007 0.221857000209726 2.283593638002207
0.107133570024128 0.223306913497704 2.283949496788944
0.111797565471374 0.225895589953912 2.309935435091627
0.233628125546430 0.222975043507184 2.020742345572571
0.185708429793681 0.221308376217563 2.493353174902132
0.232390490366549 0.225930014109315 2.496907337038114
0.196778398679242 0.224239257454473 2.510165842428372
0.033692825519238 0.237462408296534 2.211514231858339
0.033138169754420 0.242156766906057 2.217092705386907
0.035143694334583 0.231416857537772 2.212594481495821
0.056997702897334 0.231115665028460 2.213578574850926
0.058665376006081 0.235649419482484 2.214879501184048
0.058593535381416 0.238698459311693 2.218880649314612
0.032598569843372 0.243650533903842 2.211529117967554
0.058937437482956 0.244526577139869 2.218772222017476
0.031800729037787 0.250084305664273 2.214015904958957
0.032928415623883 0.254503949949390 2.219910809169280
0.058816670048329 0.253314292338320 2.221678435549476
0.032361221696132 0.259361326679300 2.220798142730112
0.116389896312406 0.230175475683696 2.351180050528276
0.120037008713217 0.230147840805911 2.352688980246020
0.132311320167387 0.243008419031041 2.471340422946015
0.135629014260878 0.237877157776891 2.418044687298059
0.144809300629875 0.242621329573672 2.458712968434211
0.156284979195762 0.245807864864550 2.482983985284595
0.140967021617515 0.250417558657882 2.543630045272696
0.209179468476741 0.226339558476776 2.495893471464580
0.218312141886941 0.226638613621817 2.495976350940918
0.214642662585264 0.230206329181331 2.558125708077211
0.184116985195776 0.245485851900276 2.481944169560251
0.169769592696837 0.245504006933249 2.476229105785543
0.194619219524952 0.254712179635782 2.484409834344118
0.162269853920713 0.246786627370612 2.493947010456925
0.191856863267148 0.249739133717448 2.499347252869927
0.182669775046750 0.247983350859919 2.512866667703958
0.232124325504285 0.233959517773012 2.019264596245177
0.231670650826400 0.237942586304528 2.020811948259744
0.233655785569419 0.226785111164360 2.020738121141189
0.230880051918010 0.249709864382846 2.023430698702142
0.230731215846190 0.257761546356017 2.024147043020136
0.226836106189703 0.251059572948180 2.487115487562980
0.237749921668105 0.251018233785764 2.501530483672475
0.224564790786107 0.256896516839115 2.503412371084364
0.229691274399201 0.227417092410297 2.512177480509937
0.268566657941729 0.230565054541564 2.537993234229807
0.263280500557492 0.230127648987796 2.538198018991201
0.260484147616126 0.231384646183938 2.558079842725779
0.268508068983805 0.233317729791237 2.575859705847845
0.261635533813408 0.259407342900268 2.546176175586576
0.031249961392269 0.260004246208750 2.214674314109516
0.058524309886138 0.260713650374527 2.219092877130614
0.032705790152833 0.260385225314069 2.221526355715977
0.032547936284428 0.261192143636984 2.221874167936213
0.058265342916034 0.264495932281007 2.220879010573263
0.058790575330737 0.261682907890574 2.223734128497416
0.058986955211453 0.262182875388358 2.223909342171638
0.195404764193356 0.264594502546835 2.484565333965849
0.199186631199753 0.262406494104919 2.517888923314532
0.208272358006315 0.259683641389396 2.561710849455410
0.194677267856773 0.274111738293566 2.488448600111482
0.211725686796304 0.274840479330400 2.568734886112867
0.209827215937655 0.279411449089523 2.567558077846120
0.194591534356759 0.298051564084061 2.494059259855430
0.197790981849063 0.286102509360738 2.521412106242046
0.197849973135312 0.290911657068111 2.522428788125668
0.209256539360351 0.300962303794952 2.570270168294557
0.209542405703348 0.307271680886702 2.570616170046611
0.275944667470317 0.263738022492075 2.578211310748151
0.286544793136377 0.264422105164139 2.571495054710930
0.282030727589640 0.264524824432488 2.577726103655500
0.225188046551787 0.266838711128678 2.518632223591492
0.225708457321413 0.271640742665720 2.520157648738500
0.225497084450781 0.280078181385264 2.507666382125949
0.228207112973935 0.286017442216223 2.524866893472425
0.228367566254836 0.290904264298849 2.525974903728899
0.228425149394478 0.295745221031731 2.527236401957040
0.228555905868936 0.305695763620117 2.529202778182192
0.240251997105485 0.305109169956613 2.574861531026677
0.031679062652586 0.429174433623159 2.236395177362769
0.031668143229579 0.440965197575055 2.237456718789666
0.031824265203290 0.437745118219349 2.237912153647013
0.059104032547327 0.434328200077809 2.242636485655159
0.059077152033591 0.437288174631205 2.242400922833429
0.059176552099923 0.427129402356426 2.241895398193268
0.059262845086883 0.441498683992464 2.243020306209019
0.032875110358083 0.447896246267764 2.248391581029867
0.059779980658345 0.445751085717373 2.243950085316178
0.061523373081563 0.450882975606684 2.244061530071532
0.233147771518634 0.414800952692507 2.045976534735531
0.233212420538199 0.418812259595138 2.046293367747299
0.233307872764992 0.422751424124751 2.046809151735280
0.231819989809047 0.438152977837897 2.047987971652089
0.232853041395915 0.430496985074645 2.047343442819463
0.231580856332924 0.442404625198252 2.049573745946606
0.237566887749406 0.444785499441597 2.067437092040030
0.239678076763126 0.441668969154406 2.073848182585222
0.266780046731768 0.445914883347519 2.074061818556268
0.231641029457256 0.447306031657772 2.050689601587700
0.262636625500168 0.447430350889154 2.059377665271492
0.217895959114773 0.451589865226757 2.609997807446963
0.218168485782814 0.452127224047755 2.608613599290615
0.032604909646547 0.452738158530207 2.248280538604525
0.217802820272052 0.452642656013006 2.610027982029155
0.247496358427415 0.453100706001934 2.608453472907490
0.247692342267879 0.453045184790951 2.608548019886692
0.061031125244911 0.454830010672871 2.249935915569340
0.062051340066807 0.455157002441519 2.244570876829937
0.242331125636595 0.456583555581939 2.586507105015320
0.247555701751581 0.454863755901018 2.607790436995535
0.247829712001840 0.456061434919886 2.608040081283331
0.030481081888572 0.458023989023418 2.245277967608267
0.062324602240078 0.459677957848377 2.245280985066486
0.030370014321401 0.464376339734401 2.246371091738651
0.219092657460563 0.465687877466761 2.613661805035124
0.248800528537405 0.460340842885733 2.053097331204134
0.065661444613404 0.468041443723347 2.269644537279759
