ply
format ascii 1.0
element vertex 289
property double x
property double y
property double z
end_header
-0.016773629933600 -0.224338471889000 1.811864733700000
-0.012189360335500 -0.215887546539000 1.788730740550000
-0.001108721597120 -0.208153799176000 1.710251808170000
0.004705816507340 -0.167443305254000 1.696755051610000
0.010556017980000 -0.142616018653000 1.701519250870000
0.011146428063500 -0.138108968735000 1.695290327070000
0.014725023880600 -0.216360598803000 1.745243906970000
-0.000470121653052 -0.178633704782000 1.748176097870000
0.000883032160345 -0.174371123314000 1.746851682660000
0.003251895774160 -0.160599172115000 1.753475904460000
-0.005850322544570 -0.219020694494000 1.754504084590000
-0.005813222844150 -0.203108116984000 1.754420757290000
0.003201237646860 -0.139706477523000 1.768200397490000
-0.001125213108030 -0.230383962393000 1.776957273480000
0.008892214857040 -0.083192177116900 1.771654844280000
0.014948092401000 -0.018206689506800 1.776956200600000
0.004400993231680 -0.113288849592000 1.778728008270000
0.004571494180710 -0.109928630292000 1.779395699500000
0.006191041786220 -0.097842767834700 1.780106782910000
0.011346602812400 -0.053148239851000 1.777837038040000
0.011399273760600 -0.203784793615000 1.780640482900000
0.010812845081100 -0.048537857830500 1.781759619710000
0.015919521451000 -0.003048760816450 1.777324080470000
0.004086704459040 -0.229721471667000 1.783343434330000
-0.010863118805000 -0.211911961436000 1.782143712040000
0.014245075173700 -0.011410772800400 1.782668471340000
0.001797049771990 -0.130284249783000 1.784012436870000
0.000505072239321 -0.134152710438000 1.791256546970000
0.003798666410150 -0.107438988984000 1.788421154020000
0.006668131332840 -0.075926393270500 1.789045095440000
0.007196580525490 -0.072950176894700 1.789344549180000
0.009345063939690 -0.058524996042300 1.787723779680000
0.007745615206660 -0.064663559198400 1.791569709780000
0.024903804063800 -0.189180135727000 1.678528785710000
0.025882976129700 -0.184504389763000 1.673326730730000
0.027300925925400 -0.168555393815000 1.672946333890000
0.029821241274500 -0.155797034502000 1.677732706070000
0.028798358514900 -0.162182614207000 1.681305646900000
0.018862174823900 -0.186658665538000 1.740333437920000
0.022221991792300 -0.163070812821000 1.746857166290000
0.018056914210300 -0.176722988486000 1.758794546130000
0.022070797160300 -0.142120972276000 1.766205430030000
0.024069758132100 -0.111183337867000 1.773604035380000
0.023395029828000 -0.116972096264000 1.774416327480000
0.027408342808500 -0.092662192881100 1.769754409790000
0.026107592508200 -0.100402832031000 1.772695183750000
0.030547263100700 -0.055087443441200 1.773609280590000
0.028055677190400 0.095715232193500 1.752647995950000
0.028142906725400 0.094175875186900 1.752449750900000
0.027657825499800 0.095269419252900 1.753986716270000
0.027004003524800 0.094782993197400 1.756242871280000
0.050499141216300 -0.196467131376000 1.674617171290000
0.054220687598000 -0.198685377836000 1.684725403790000
0.034903269261100 -0.014370746910600 1.771020770070000
0.035500477999400 0.094214335084000 1.679461956020000
0.035170689225200 0.099098511040200 1.687994241710000
0.035914875567000 0.100343897939000 1.679426670070000
0.046476375311600 0.088444232940700 1.748818278310000
0.046800799667800 0.092763155698800 1.745865345000000
0.095884092152100 0.117064736784000 1.569062948230000
0.093247532844500 0.175912812352000 1.619955301280000
0.095876649022100 0.189469799399000 1.628852009770000
0.062370344996500 0.166758298874000 1.664251804350000
0.060532066971100 0.175440222025000 1.668260931970000
0.063636012375400 0.197150945663000 1.669236183170000
0.063747793436100 0.209837868810000 1.667633056640000
0.098476976156200 0.116911895573000 1.556813478470000
0.101860769093000 0.121497891843000 1.557604074480000
0.115689672530000 0.119971558452000 1.488602042200000
0.116298496723000 0.206475064158000 1.492408633230000
0.116568610072000 0.192654594779000 1.494373202320000
0.116730622947000 0.123525135219000 1.490589737890000
0.116659089923000 0.173813939095000 1.485643148420000
0.124817796052000 0.167721077800000 1.518271565440000
0.117433801293000 0.188831418753000 1.506177306180000
0.121281035244000 0.369359791279000 1.495979785920000
0.119068615139000 0.386424958706000 1.517117857930000
0.118599109352000 0.377359718084000 1.517930626870000
0.116734720767000 0.396965414286000 1.499950289730000
0.124638766050000 0.418138444424000 1.524563670160000
0.117932274938000 0.402574658394000 1.527095079420000
0.118166081607000 0.410391271114000 1.525643229480000
0.126859322190000 0.419550240040000 1.527090072630000
0.116926141083000 0.396004468203000 1.534022808070000
0.117149233818000 0.401702672243000 1.534090876580000
0.117650978267000 0.398476511240000 1.532471656800000
0.116295114160000 0.412001967430000 1.535811662670000
0.118173427880000 0.418346822262000 1.536277651790000
0.119931720197000 0.420792907476000 1.536579370500000
0.028422130271800 0.120714277029000 1.760167002680000
0.030194319784600 0.135014310479000 1.760135650630000
0.030664822086700 0.147115081549000 1.762810349460000
0.030695682391500 0.153417810798000 1.764367699620000
0.031816180795400 0.170309469104000 1.762886643410000
0.031616594642400 0.173408612609000 1.763653039930000
0.031961202621500 0.182597517967000 1.763812780380000
0.032088469713900 0.188409417868000 1.764109611510000
0.032307196408500 0.114603683352000 1.737157344820000
0.032608296722200 0.141938641667000 1.746349573140000
0.032623212784500 0.148041367531000 1.748389482500000
0.032665256410800 0.198844894767000 1.763762235640000
0.032821804285000 0.204636707902000 1.764058351520000
0.033818531781400 0.220788434148000 1.762974143030000
0.035066649317700 0.225924551487000 1.755991578100000
0.035604577511500 0.125294089317000 1.711649894710000
0.038598813116600 0.161757782102000 1.687865138050000
0.038850273937000 0.168071150780000 1.688898086550000
0.039239060133700 0.183760851622000 1.690142631530000
0.039234541356600 0.193364068866000 1.691916584970000
0.036589525640000 0.116331897676000 1.708001494410000
0.036975763738200 0.132051005960000 1.714142560960000
0.036727607250200 0.135265544057000 1.717146515850000
0.039511054754300 0.198330044746000 1.701403856280000
0.056893277913300 0.196093767881000 1.738252401350000
0.060227867215900 0.201271295547000 1.723301410680000
0.033968415111300 0.386427015066000 1.714479088780000
0.034389685839400 0.379363328218000 1.711133599280000
0.025515059009200 0.413349866867000 1.813718914990000
0.026422053575500 0.407431989908000 1.810768485070000
0.026210237294400 0.416184484959000 1.813242793080000
0.057887680828600 0.400665730238000 1.763453483580000
0.056271020323000 0.397421896458000 1.774845123290000
0.059756048023700 0.396123409271000 1.726463317870000
0.057716265320800 0.412777274847000 1.770753622060000
0.028747726231800 0.429630696774000 1.793009758000000
0.043975964188600 0.427602052689000 1.767239451410000
0.044016350060700 0.432623475790000 1.781429290770000
0.050213396549200 0.424464404583000 1.758042573930000
0.051593683660000 0.429140925407000 1.775012850760000
0.053754430264200 0.429348319769000 1.783440470700000
0.024235321208800 0.423248112202000 1.815740108490000
0.023836728185400 0.427830696106000 1.816585063930000
0.025085723027600 0.419829875231000 1.815315008160000
0.026200816035300 0.440776109695000 1.818022251130000
0.030128803104200 0.442199796438000 1.817486286160000
0.134657517076000 0.165262922645000 1.489198207860000
0.139097407460000 0.163299515843000 1.489656209950000
0.133849367499000 0.128357365727000 1.494387269020000
0.144041061401000 0.128448411822000 1.480430006980000
0.137618124485000 0.182753250003000 1.508687376980000
0.137656569481000 0.203543320298000 1.509281158450000
0.137798681855000 0.207136452198000 1.509919643400000
0.138499498367000 0.210925728083000 1.507874131200000
0.145876258612000 0.175592988729000 1.490949511530000
0.141055032611000 0.177855193615000 1.491594910620000
0.149618208408000 0.173785775900000 1.481869578360000
0.163638591766000 0.174612537026000 1.498743414880000
0.155341729522000 0.175382092595000 1.495543718340000
0.157300338149000 0.176092892885000 1.499294757840000
0.151049509645000 0.176718503237000 1.502715110780000
0.144501656294000 0.377370089293000 1.488741517070000
0.146644011140000 0.399534165859000 1.493515729900000
0.146011903882000 0.395791262388000 1.494528770450000
0.134846746922000 0.416476190090000 1.522075057030000
0.135478764772000 0.407188862562000 1.487813353540000
0.140626594424000 0.416270077229000 1.527998685840000
0.181898474693000 0.366301089525000 1.740194916730000
0.203865662217000 -0.185224458575000 1.770318984990000
0.206615477800000 -0.168383032084000 1.777431488040000
0.212638944387000 -0.127218976617000 1.769892334940000
0.232502758503000 0.069469794631000 1.764911293980000
0.234468966722000 0.095807738602200 1.778131246570000
0.175263226032000 -0.217396780849000 1.811501860620000
0.192701548338000 -0.221055746078000 1.805907249450000
0.203853324056000 -0.198680073023000 1.785328865050000
0.213703081012000 -0.151818498969000 1.812619209290000
0.211837887764000 -0.164644464850000 1.828804373740000
0.212744936347000 -0.156039282680000 1.825025081630000
0.212671473622000 -0.148502185941000 1.829264402390000
0.216240286827000 -0.129136964679000 1.819501996040000
0.216400176287000 -0.125365227461000 1.822720646860000
0.217025235295000 -0.122495673597000 1.821962594990000
0.215781256557000 -0.122683502734000 1.830182790760000
0.217633828521000 -0.111801654100000 1.832249760630000
0.221488922834000 -0.077047497034100 1.824397921560000
0.221835002303000 -0.073387585580300 1.823607325550000
0.220411106944000 -0.080973535776100 1.843935012820000
0.222482234240000 -0.066835418343500 1.839267253880000
0.222376227379000 -0.068927057087400 1.839578986170000
0.222602203488000 -0.063933715224300 1.839997649190000
0.223313525319000 -0.058012686669800 1.839365839960000
0.225354999304000 -0.030725119635500 1.838361382480000
0.225425660610000 -0.027610938996100 1.849515438080000
0.225571304560000 -0.026073988527100 1.848586320880000
0.229255318642000 0.008486889302730 1.829977393150000
0.229905351996000 0.025298669934300 1.843378305440000
0.229898139834000 0.027403010055400 1.846212267880000
0.230957061052000 0.035637952387300 1.837712407110000
0.231094673276000 0.038912303745700 1.836651921270000
0.231920689344000 0.048713836818900 1.838315248490000
0.231402382255000 0.042160633951400 1.838644504550000
0.199534058571000 0.224068254232000 1.847706913950000
0.199683293700000 0.229477211833000 1.849671125410000
0.195644810796000 0.243578925729000 1.828267455100000
0.203940942883000 0.195126697421000 1.819393634800000
0.224372938275000 0.212328553200000 1.822513580320000
0.228074520826000 0.212152883410000 1.828536391260000
0.216857716441000 0.217819526792000 1.826494455340000
0.221258446574000 0.215458750725000 1.836667656900000
0.236135482788000 0.091256909072400 1.802377104760000
0.257522553205000 0.098926372826100 1.779824018480000
0.248851105571000 0.102742411196000 1.788827300070000
0.235190346837000 0.077062100172000 1.808406472210000
0.251978933811000 0.102254077792000 1.806712985040000
0.238002732396000 0.208018109202000 1.808683037760000
0.245495736599000 0.106329679489000 1.823763489720000
0.232613414526000 0.209646508098000 1.818024039270000
0.232130974531000 0.051803585141900 1.836870908740000
0.233445256948000 0.075348377227800 1.842193126680000
0.234098076820000 0.084250025451200 1.842649579050000
0.234070107341000 0.090237557888000 1.844158053400000
0.235347583890000 0.096697419881800 1.833061337470000
0.235120758414000 0.102074064314000 1.844164609910000
0.236255481839000 0.105051927269000 1.842185020450000
0.248185455799000 0.209851861000000 1.828644871710000
0.251050800085000 0.209211528301000 1.825256466870000
0.253954797983000 0.210211366415000 1.834597945210000
0.305338203907000 0.175304457545000 1.642480492590000
0.301221549511000 0.177465379238000 1.654369115830000
0.310663670301000 0.173442393541000 1.635887980460000
0.308532267809000 0.174498319626000 1.640284061430000
0.299971908331000 0.180290535092000 1.671457767490000
0.300057053566000 0.180497288704000 1.670689821240000
0.301307916641000 0.183231040835000 1.693675875660000
0.317294567823000 0.169856816530000 1.626605868340000
0.320448607206000 0.168453887105000 1.619881987570000
0.325192004442000 0.151178240776000 1.609362602230000
0.316552102566000 0.129037246108000 1.696993470190000
0.323294252157000 0.128829076886000 1.704690694810000
0.259724050760000 0.101166248322000 1.813125014310000
0.262686610222000 0.101661086082000 1.820532560350000
0.268125236034000 0.093471869826300 1.714353919030000
0.266553670168000 0.102761112154000 1.834343791010000
0.319353967905000 0.129664078355000 1.706793069840000
0.309801399708000 0.131730109453000 1.711721897130000
0.295048356056000 0.135706126690000 1.736460208890000
0.300143241882000 0.136342257261000 1.751838564870000
0.303786754608000 0.136407032609000 1.753403425220000
0.290338546038000 0.138111993670000 1.752134084700000
0.293356806040000 0.139703005552000 1.773710370060000
0.325771957636000 0.186075985432000 1.608397126200000
0.326413065195000 0.188282296062000 1.631641030310000
0.326218605042000 0.198543101549000 1.627783536910000
0.325918495655000 0.127829611301000 1.696662187580000
0.326874107122000 0.190746963024000 1.625632762910000
0.326842337847000 0.193417012691000 1.626259326930000
0.326966166496000 0.169993177056000 1.616598367690000
0.329071938992000 0.153571635485000 1.619775891300000
0.327252566814000 0.184675008059000 1.634700298310000
0.327749490738000 0.180352881551000 1.621667623520000
0.328295409679000 0.174945607781000 1.624189972880000
0.328306764364000 0.178096115589000 1.626930356030000
0.327853262424000 0.379202246666000 1.626212120060000
0.326063990593000 0.390352725983000 1.624979138370000
0.328543215990000 0.400811940432000 1.644992470740000
0.328981429338000 0.388779312372000 1.635765552520000
0.328817784786000 0.397663861513000 1.644031286240000
0.329303681850000 0.386530816555000 1.642234683040000
0.329254269600000 0.406297564507000 1.649460792540000
0.329869478941000 0.383319497108000 1.645838499070000
0.330226719379000 0.120587646961000 1.626651763920000
0.330717265606000 0.151301130652000 1.607787370680000
0.330370157957000 0.407384276390000 1.646283864970000
0.331819117069000 0.409276574850000 1.644988060000000
0.335608363152000 0.119092255831000 1.613144278530000
0.332858324051000 0.119105823338000 1.616237282750000
0.334094852209000 0.152806431055000 1.618559241290000
0.337597966194000 0.151477470994000 1.615529656410000
0.344396978617000 0.161635011435000 1.567673206330000
0.346159130335000 0.158052697778000 1.564611911770000
0.345766335726000 0.127723008394000 1.591650962830000
0.349728465080000 0.127743408084000 1.595115065570000
0.348979711533000 0.163013577461000 1.593121171000000
0.340945333242000 0.147776603699000 1.611740469930000
0.351358324289000 0.128783360124000 1.574166655540000
0.350734442472000 0.161755129695000 1.601529121400000
0.353201359510000 0.150203242898000 1.575765371320000
0.354035109282000 0.143460735679000 1.577410101890000
0.354172259569000 0.131299600005000 1.592058062550000
0.354313611984000 0.155064478517000 1.599060297010000
0.354943752289000 0.140055090189000 1.597890853880000
0.355143636465000 0.148971810937000 1.597796440120000
0.352977693081000 0.387204974890000 1.623646020890000
0.354485750198000 0.394959449768000 1.625251531600000
0.339076042175000 0.407471865416000 1.617049813270000
0.352844387293000 0.401555895805000 1.626553654670000
0.344363689423000 0.409425616264000 1.635093331340000
0.341556966305000 0.409885704517000 1.638059854510000
0.339312195778000 0.412753313780000 1.644411683080000
