ply
format ascii 1.0
element vertex 171
property float x
property float y
property float z
property float nx
property float ny
property float nz
end_header
0.274758 -0.18998 1.8282 -0.781537 -0.0521195 -0.621677
0.251019 -0.252641 1.83441 -0.781537 -0.0521195 -0.621677
0.25753 -0.247734 1.85951 -0.781537 -0.0521195 -0.621677
0.24841 -0.239361 1.87541 -0.781537 -0.0521195 -0.621677
0.248131 -0.243899 1.87522 -0.781537 -0.0521195 -0.621677
0.231048 -0.216961 1.89331 -0.781537 -0.0521195 -0.621677
0.231882 -0.224326 1.89646 -0.781537 -0.0521195 -0.621677
0.229339 -0.20724 1.89343 -0.781537 -0.0521195 -0.621677
0.236193 0.0269209 1.85946 0.514038 -0.200187 -0.83408
0.235681 0.0307071 1.85944 0.514038 -0.200187 -0.83408
0.275293 0.0529747 1.80304 -0.38712 0.65915 0.644716
0.408437 0.0803322 1.54035 0.972657 -0.0148007 0.231776
0.235498 0.0344442 1.85991 -0.38712 0.65915 0.644716
0.234286 0.0531493 1.85999 -0.38712 0.65915 0.644716
0.0430635 0.0501014 1.74142 0.918857 0.304315 0.251185
0.0424615 0.0590614 1.7419 0.918857 0.304315 0.251185
0.0416664 0.0681235 1.74291 0.918857 0.304315 0.251185
0.0408554 0.0772798 1.74387 0.918857 0.304315 0.251185
0.0404251 0.0818644 1.74419 0.918857 0.304315 0.251185
0.387928 0.099275 1.59003 -0.520375 -0.524991 -0.673495
0.146876 0.126319 1.46272 0.905039 0.333084 -0.264498
0.14308 0.134339 1.46056 0.905039 0.333084 -0.264498
0.0381275 0.0956916 1.71458 -0.754877 -0.247272 -0.607468
0.0401675 0.0864365 1.74415 0.918857 0.304315 0.251185
0.150632 0.137505 1.47879 0.905039 0.333084 -0.264498
0.152813 0.141349 1.48156 0.905039 0.333084 -0.264498
0.156451 0.144119 1.48606 0.902884 0.314136 -0.293462
0.402003 0.138954 1.49396 0.796375 0.335407 -0.503278
0.403185 0.139244 1.49855 0.796375 0.335407 -0.503278
0.390576 0.138846 1.49276 0.796375 0.335407 -0.503278
0.413837 0.140232 1.51163 -0.837581 -0.209488 0.504552
0.141773 0.155175 1.46172 0.929825 0.289777 -0.226838
0.412485 0.141029 1.52342 0.915588 0.106745 -0.38769
0.40403 0.161296 1.49535 0.598697 0.376612 -0.706912
0.412061 0.16182 1.50779 0.85561 0.204185 -0.475648
0.397916 0.161974 1.51066 -0.630999 -0.384861 0.673589
0.389785 0.162627 1.50163 -0.457939 -0.503502 0.732651
0.3869 0.162587 1.49952 -0.457939 -0.503502 0.732651
0.412338 0.165006 1.51298 0.83991 0.15115 -0.521253
0.140218 0.161435 1.46735 0.908941 0.301704 -0.287751
0.141565 0.167013 1.47034 -0.904435 -0.33753 0.260903
0.138578 0.165655 1.47361 0.904273 0.326039 -0.27566
0.139091 0.171101 1.47706 0.898262 0.339345 -0.279233
0.156059 0.167983 1.5015 -0.936904 -0.296616 0.185013
0.158788 0.168598 1.51759 -0.947747 -0.296855 0.11684
0.161241 0.17004 1.52384 0.94398 0.313989 -0.10155
0.0127597 0.165017 1.72825 -0.774784 -0.488832 -0.40094
0.155289 0.161962 1.73128 -0.112125 0.950435 0.290001
0.235853 0.157418 1.68768 0.0659961 0.907538 0.414752
0.154472 0.172288 1.49866 0.939674 0.258365 -0.224189
0.165829 0.171404 1.53044 0.796434 0.470296 0.38015
0.333106 0.168241 1.54997 0.281666 -0.693752 0.662852
0.0167801 0.165627 1.73698 -0.950952 -0.303604 0.0592893
0.143651 0.179675 1.47751 0.888157 0.331203 -0.318562
0.136977 0.175748 1.56872 0.579007 0.621729 0.52745
0.122599 0.176192 1.57729 0.475002 0.730036 0.491346
0.127095 0.177366 1.5836 0.475002 0.730036 0.491346
0.109589 0.179459 1.60342 0.475002 0.730036 0.491346
0.412145 0.175914 1.52017 -0.602005 -0.374667 0.705134
0.0110956 0.16995 1.7747 -0.21751 0.764266 0.607114
0.0372212 0.17288 1.81371 -0.719529 -0.438732 0.538323
0.00476276 0.172276 1.79389 -0.772806 -0.634641 -0.00108798
0.138776 0.195014 1.48166 0.889144 0.39216 -0.235866
0.134105 0.199654 1.48484 -0.635988 -0.0820012 -0.76733
0.138753 0.188907 1.48325 0.872805 0.352554 -0.337514
0.151489 0.187825 1.50101 -0.899182 -0.362894 0.244498
0.151551 0.192281 1.50328 0.899308 0.310979 -0.30747
0.148398 0.195279 1.50581 0.870661 0.349242 -0.346381
0.138161 0.201236 1.48103 -0.635988 -0.0820012 -0.76733
0.148765 0.201093 1.50622 0.849706 0.32645 -0.414041
0.13579 0.207662 1.48217 -0.635988 -0.0820012 -0.76733
0.131907 0.211964 1.48685 -0.635988 -0.0820012 -0.76733
0.14651 0.209842 1.50823 0.851408 0.327628 -0.409591
0.130916 0.216826 1.48713 0.787577 0.44298 -0.42836
0.0800669 0.183052 1.63268 0.587972 0.385303 0.711218
0.0811354 0.182877 1.63648 0.587972 0.385303 0.711218
-0.00436511 0.193793 1.71993 -0.774784 -0.488832 -0.40094
0.0395084 0.189224 1.6894 0.14233 0.969618 0.198955
0.0132811 0.193126 1.72193 0.0991555 -0.980817 0.167829
0.00134174 0.1956 1.74605 0.817991 0.560701 -0.128469
-0.0557338 0.199977 1.77169 0.0650571 -0.916766 0.394092
0.0236712 0.174119 1.79488 0.815212 -0.419978 -0.398807
0.0292565 0.174095 1.80211 0.90508 -0.0430437 -0.423058
-0.0218093 0.177003 1.83778 0.610405 0.727465 0.313369
0.0193633 0.194311 1.76725 0.910314 -0.413297 -0.0226583
0.0149833 0.194907 1.75246 -0.999188 0.0156421 -0.037123
0.0240284 0.203129 1.77735 -0.820775 0.315715 0.476081
-0.00356164 0.196227 1.75757 -0.795913 0.597263 0.0989943
0.0105235 0.198069 1.78424 0.565006 -0.0608672 0.822839
-0.00580257 0.196466 1.78532 0.794358 -0.318502 0.517254
0.412505 0.186962 1.51847 0.887714 0.226939 -0.400577
0.411056 0.190939 1.51921 0.887714 0.226939 -0.400577
0.41221 0.17972 1.52032 0.887714 0.226939 -0.400577
0.408648 0.202693 1.52062 0.55084 0.295287 -0.780629
0.408088 0.210735 1.52123 0.55084 0.295287 -0.780629
0.0417792 0.198311 1.80419 -0.977406 -0.174368 -0.119474
0.0371984 0.197704 1.82167 0.605893 -0.0998587 0.789254
0.0276368 0.204018 1.81269 -0.392706 -0.311531 0.865292
0.0235702 0.174268 1.82109 -0.982024 0.151184 -0.113013
0.0273568 0.175718 1.86768 0.846187 -0.180179 0.501501
0.0239222 0.175465 1.86364 -0.392089 0.882562 -0.259521
0.00658444 0.176567 1.87379 -0.00918426 -0.935597 0.35295
-0.0024035 0.177991 1.89115 -0.61795 -0.735165 0.278694
0.0169824 0.204681 1.86832 0.907853 0.198722 0.369206
0.13505 0.217586 1.48249 0.787577 0.44298 -0.42836
0.148449 0.217279 1.50667 0.849053 0.301209 -0.434031
0.130569 0.217828 1.48789 0.796304 0.440038 -0.41505
0.130208 0.218636 1.48801 0.796304 0.440038 -0.41505
0.14693 0.221045 1.5077 0.863577 0.24351 -0.441516
0.144978 0.218179 1.50978 0.863577 0.24351 -0.441516
0.144968 0.218669 1.51006 0.863577 0.24351 -0.441516
0.0245085 0.212976 1.77841 -0.999752 -0.0173172 -0.0139763
0.000633975 0.210234 1.80191 0.78146 0.516096 -0.350664
-0.0282175 0.206638 1.83604 0.459904 0.0250508 0.887615
0.0211197 0.222463 1.78058 -0.948902 -0.205599 -0.239403
-0.031423 0.221574 1.84363 -0.206181 0.277292 -0.938402
-0.0316183 0.226224 1.84158 0.347339 -0.635489 0.689572
0.0169409 0.246318 1.78483 -0.843504 -0.498832 -0.199167
-0.00271739 0.233918 1.80383 -0.992485 -0.00529877 0.122248
-0.00342318 0.238709 1.80468 -0.998599 -0.0238212 0.0472577
-0.0338477 0.247745 1.84357 0.42174 -0.62111 0.660573
-0.0338675 0.254036 1.84423 0.42174 -0.62111 0.660573
0.000705958 0.208099 1.89952 0.822828 0.565683 -0.0543829
0.0125461 0.208494 1.90371 0.822828 0.565683 -0.0543829
0.00485965 0.208677 1.90403 0.822828 0.565683 -0.0543829
0.0161789 0.213738 1.82294 -0.679739 -0.562042 0.471237
0.0153594 0.2185 1.82446 -0.679739 -0.562042 0.471237
0.0251448 0.227096 1.81687 0.75203 0.59512 -0.283345
0.0133738 0.232718 1.82985 0.774394 0.539916 -0.329855
0.0126599 0.237582 1.83083 0.774394 0.539916 -0.329855
0.0117615 0.242402 1.83183 0.813355 0.405002 -0.417644
0.0104148 0.252316 1.8335 -0.44075 -0.864018 0.243334
-0.018242 0.250739 1.87089 0.0315562 0.849406 0.526796
0.120245 0.386347 1.50227 0.845632 0.46643 -0.259517
0.119544 0.398116 1.50333 0.852998 0.434325 -0.289406
0.119245 0.394888 1.50362 0.852998 0.434325 -0.289406
0.132358 0.390453 1.52784 0.930805 0.22134 -0.290879
0.132562 0.393415 1.52778 0.930805 0.22134 -0.290879
0.132901 0.383266 1.52718 0.925039 0.249338 -0.286589
0.13224 0.397608 1.52846 0.775136 0.280685 -0.566021
0.111779 0.404862 1.51129 0.839855 0.435589 -0.323891
0.131879 0.401827 1.52959 0.775136 0.280685 -0.566021
0.13293 0.406893 1.53121 0.775136 0.280685 -0.566021
0.394285 0.367302 1.5422 -0.891656 -0.452215 0.0212638
0.394123 0.371305 1.54259 -0.891656 -0.452215 0.0212638
0.393824 0.375232 1.54313 -0.891656 -0.452215 0.0212638
0.392159 0.39066 1.54323 0.607256 -0.248096 0.754777
0.393214 0.382981 1.54337 0.607256 -0.248096 0.754777
0.390816 0.394897 1.54418 0.607256 -0.248096 0.754777
0.380507 0.396839 1.56001 0.922065 -0.322278 0.21432
0.376738 0.393569 1.56552 0.922065 -0.322278 0.21432
0.393377 0.396856 1.58708 0.922065 -0.322278 0.21432
0.390034 0.399778 1.54509 0.780079 -0.371631 0.503356
0.402373 0.398701 1.5748 0.922065 -0.322278 0.21432
-0.0579447 0.39746 1.88027 0.700773 0.377975 -0.605023
-0.0566819 0.398005 1.87964 0.700773 0.377975 -0.605023
0.111757 0.409712 1.51118 0.825219 0.449907 -0.341463
-0.058013 0.398514 1.88025 0.700773 0.377975 -0.605023
-0.0384102 0.397947 1.9026 0.721061 0.308655 -0.620325
-0.0383642 0.397883 1.90281 -0.721061 -0.308655 0.620325
0.128056 0.41078 1.53459 -0.697217 -0.657824 0.284878
0.132908 0.411139 1.53209 -0.578462 0.15841 -0.80018
-0.0243166 0.401887 1.8851 -0.721061 -0.308655 0.620325
-0.0378317 0.399715 1.9023 -0.721061 -0.308655 0.620325
-0.0378447 0.400899 1.90272 -0.721061 -0.308655 0.620325
0.112865 0.415106 1.50784 0.82407 0.441079 -0.355468
0.132572 0.415638 1.5329 -0.697217 -0.657824 0.284878
0.112012 0.421444 1.50866 -0.801142 -0.448715 0.396013
-0.0599168 0.411459 1.88397 0.700773 0.377975 -0.605023
0.398906 0.41217 1.56051 0.922065 -0.322278 0.21432
0.115588 0.42357 1.55088 0.732951 0.665167 -0.142603
