VERSION .7
FIELDS x y z
SIZE 4 4 4
TYPE F F F
COUNT 1 1 1
WIDTH 1730
HEIGHT 1
VIEWPOINT 0 0 0 1 0 0 0
POINTS 1730
DATA ascii
0.233732 -0.144483 0.797287
0.245491 -0.128934 0.807463
0.247298 -0.133637 0.815724
0.242788 -0.129094 0.804434
0.239803 -0.140745 0.820046
0.245629 -0.140615 0.826083
0.241734 -0.144629 0.822835
0.242607 -0.129114 0.804196
0.247641 -0.14129 0.825049
0.245249 -0.128301 0.806147
0.253464 -0.130088 0.818362
0.250606 -0.129668 0.814682
0.246964 -0.138901 0.826659
0.242145 -0.142204 0.82056
0.247691 -0.133751 0.815998
0.245241 -0.136828 0.811584
0.244002 -0.138615 0.824017
0.248071 -0.14006 0.824272
0.242011 -0.140568 0.825167
0.231911 -0.130135 0.79261
0.258792 -0.137932 0.830585
0.235519 -0.143231 0.819202
0.246242 -0.143457 0.828075
0.245958 -0.141912 0.82748
0.246616 -0.138225 0.8245
0.248477 -0.140556 0.826699
0.25946 -0.139357 0.82338
0.243098 -0.139924 0.822334
0.220624 -0.136841 0.796664
0.258473 -0.137315 0.826681
0.243232 -0.136585 0.81392
0.2254 -0.143387 0.792843
0.223352 -0.138037 0.80193
0.251448 -0.140639 0.827428
0.220382 -0.142896 0.80188
0.238544 -0.134104 0.813048
0.244076 -0.137276 0.761197
0.234971 -0.137803 0.762112
0.242336 -0.129199 0.786891
0.249334 -0.126928 0.786212
0.239821 -0.128559 0.762238
0.240753 -0.125542 0.763672
0.248835 -0.126074 0.792689
0.213729 -0.130207 0.756759
0.255505 -0.138997 0.830434
0.222859 -0.13071 0.76301
0.240643 -0.128279 0.762163
0.257819 -0.13723 0.827181
0.249264 -0.128555 0.804115
0.231212 -0.143535 0.817248
0.249151 -0.125985 0.792808
0.258025 -0.13 0.817676
0.239698 -0.142452 0.819506
0.233173 -0.128129 0.758852
0.249558 -0.128767 0.804575
0.250936 -0.133798 0.815218
0.233577 -0.142787 0.816809
0.261246 -0.127821 0.806369
0.252837 -0.131449 0.824099
0.239209 -0.137868 0.820266
0.232795 -0.136091 0.809424
0.238499 -0.136553 0.790083
0.249392 -0.130728 0.814964
0.25834 -0.128027 0.806089
0.247968 -0.127918 0.804654
0.24956 -0.126764 0.786288
0.248952 -0.128613 0.786323
0.261311 -0.127231 0.81176
0.23805 -0.141668 0.82234
0.251536 -0.126528 0.79669
0.241687 -0.138162 0.824098
0.241449 -0.139644 0.819059
0.248408 -0.1266 0.784989
0.239195 -0.133054 0.784538
0.249713 -0.133264 0.813994
0.261416 -0.1275 0.812158
0.243891 -0.138309 0.822005
0.238467 -0.138291 0.82009
0.236887 -0.13958 0.796818
0.249413 -0.12871 0.804397
0.256984 -0.137952 0.827937
0.246772 -0.125876 0.792498
0.247784 -0.129863 0.796119
0.242264 -0.137196 0.791148
0.249741 -0.132079 0.815969
0.24298 -0.139558 0.821899
0.244686 -0.139276 0.823776
0.251061 -0.133009 0.815929
0.247301 -0.128351 0.806083
0.243993 -0.139024 0.818927
0.257316 -0.136712 0.824625
0.24769 -0.129827 0.796107
0.240524 -0.127768 0.79976
0.261614 -0.128872 0.813597
0.250158 -0.129867 0.795882
0.247911 -0.131809 0.781481
0.239836 -0.127992 0.762822
0.24873 -0.129535 0.790723
0.237749 -0.138068 0.819864
0.261501 -0.12748 0.812261
0.247021 -0.129298 0.813698
0.243845 -0.129219 0.803405
0.237283 -0.140763 0.819018
0.248648 -0.125561 0.791702
0.249736 -0.125079 0.786133
0.248221 -0.129106 0.804041
0.241483 -0.138729 0.787008
0.246015 -0.129393 0.807814
0.257852 -0.136784 0.829056
0.249901 -0.128262 0.805069
0.248057 -0.127918 0.804804
0.256888 -0.129096 0.814145
0.246563 -0.12441 0.778494
0.252577 -0.133829 0.822547
0.240521 -0.132422 0.78653
0.239943 -0.128523 0.763629
0.256948 -0.13761 0.827398
0.242262 -0.13953 0.819501
0.250144 -0.129819 0.795768
0.242654 -0.133098 0.7901
0.253424 -0.134262 0.822949
0.24405 -0.119279 0.769436
0.243346 -0.141462 0.823547
0.248241 -0.129516 0.79566
0.249044 -0.131789 0.815476
0.248002 -0.128453 0.791212
0.236386 -0.138057 0.780952
0.24205 -0.138093 0.820525
0.246048 -0.130093 0.784786
0.253589 -0.123016 0.779016
0.240503 -0.138591 0.820918
0.252168 -0.129531 0.815941
0.232495 -0.139033 0.787316
0.249223 -0.129237 0.793821
0.245948 -0.13672 0.814582
0.240077 -0.138313 0.822806
0.239138 -0.140751 0.819927
0.245768 -0.138534 0.822764
0.24996 -0.132203 0.816166
0.246911 -0.127651 0.803019
0.242178 -0.140762 0.821057
0.246147 -0.12905 0.793397
0.24376 -0.127328 0.807211
0.247384 -0.126247 0.793316
0.24937 -0.129271 0.794056
0.246391 -0.1382 0.82448
0.243642 -0.13795 0.824322
0.251208 -0.131247 0.822336
0.232878 -0.13046 0.793592
0.249968 -0.130222 0.818315
0.24357 -0.129882 0.789062
0.257647 -0.137391 0.826907
0.249804 -0.129729 0.79543
0.241611 -0.134632 0.815366
0.249606 -0.130559 0.822035
0.252114 -0.130226 0.818242
0.262161 -0.127088 0.799162
0.240605 -0.128451 0.761589
0.228256 -0.135382 0.754993
0.249256 -0.128183 0.78597
0.243204 -0.129522 0.788602
0.237364 -0.137637 0.818429
0.247777 -0.131681 0.783413
0.25102 -0.124499 0.78255
0.251002 -0.124433 0.782412
0.24841 -0.129818 0.792053
0.26225 -0.129323 0.814999
0.250277 -0.123899 0.783021
0.231731 -0.133808 0.783804
0.26124 -0.129557 0.815946
0.261156 -0.129134 0.815387
0.243772 -0.128936 0.800244
0.259734 -0.128092 0.8059
0.261268 -0.128211 0.807006
0.253812 -0.130152 0.819177
0.258875 -0.12927 0.815074
0.253091 -0.134021 0.822788
0.253873 -0.123118 0.779854
0.26221 -0.127037 0.79893
0.25209 -0.131804 0.780131
0.249647 -0.129268 0.803068
0.245352 -0.127256 0.793414
0.243264 -0.129414 0.804778
0.235934 -0.130679 0.791241
0.249342 -0.129645 0.818733
0.261993 -0.129135 0.814433
0.250126 -0.131124 0.821884
0.24508 -0.128834 0.787212
0.24916 -0.133382 0.815004
0.259701 -0.128066 0.805958
0.251461 -0.126427 0.796507
0.235804 -0.128597 0.795108
0.249887 -0.126849 0.794599
0.249268 -0.128964 0.802167
0.247659 -0.128296 0.787691
0.247992 -0.13053 0.784172
0.236294 -0.140792 0.813943
0.249289 -0.133453 0.815131
0.249284 -0.13246 0.782666
0.244114 -0.137226 0.786948
0.251911 -0.125043 0.78571
0.249464 -0.126728 0.786181
0.256597 -0.129654 0.817526
0.250747 -0.131985 0.780593
0.258896 -0.129247 0.815082
0.242491 -0.138908 0.817157
0.245108 -0.128618 0.800007
0.251517 -0.130869 0.799019
0.256794 -0.128689 0.811184
0.249865 -0.130116 0.795111
0.250297 -0.130517 0.821963
0.249609 -0.130834 0.821651
0.249534 -0.127895 0.804502
0.234195 -0.141678 0.810771
0.246019 -0.127778 0.794656
0.249501 -0.127847 0.8045
0.247179 -0.129313 0.8105
0.238015 -0.140752 0.814878
0.239685 -0.138795 0.816741
0.246188 -0.127054 0.794172
0.240949 -0.126455 0.778324
0.245991 -0.128603 0.806867
0.250778 -0.129942 0.804724
0.242445 -0.134762 0.81591
0.241098 -0.126871 0.789657
0.235563 -0.142092 0.811419
0.244439 -0.126707 0.780851
0.237826 -0.140758 0.81473
0.248712 -0.128446 0.785753
0.237941 -0.14163 0.813018
0.243084 -0.128044 0.789176
0.230515 -0.128664 0.757904
0.238888 -0.138695 0.8163
0.22714 -0.143783 0.794337
0.235034 -0.127599 0.79205
0.232357 -0.13393 0.784576
0.230977 -0.142742 0.801496
0.245841 -0.136179 0.812667
0.24592 -0.13911 0.818978
0.243775 -0.137003 0.812438
0.238126 -0.139182 0.811713
0.263684 -0.127436 0.803806
0.243731 -0.119119 0.769048
0.24721 -0.12943 0.784348
0.237283 -0.138746 0.789536
0.242484 -0.135568 0.813864
0.244587 -0.135947 0.815328
0.255452 -0.126226 0.776751
0.247821 -0.129769 0.814364
0.25065 -0.12967 0.814762
0.260195 -0.128597 0.797317
0.244073 -0.136577 0.814925
0.246317 -0.128866 0.813153
0.245006 -0.135616 0.817063
0.242555 -0.136425 0.813286
0.264774 -0.126287 0.798384
0.255671 -0.136737 0.776729
0.242603 -0.135145 0.815585
0.241216 -0.138061 0.813877
0.237204 -0.138726 0.810926
0.243038 -0.137065 0.811332
0.259121 -0.13134 0.777768
0.257041 -0.129278 0.814453
0.264372 -0.133379 0.786368
0.243358 -0.136062 0.814782
0.245204 -0.136034 0.815762
0.258739 -0.125507 0.78878
0.237182 -0.138597 0.814301
0.253778 -0.133482 0.81827
0.258675 -0.125345 0.788577
0.254807 -0.131531 0.77907
0.259151 -0.13356 0.778608
0.24761 -0.136028 0.81287
0.247812 -0.130391 0.783734
0.24278 -0.136292 0.813441
0.242546 -0.137124 0.811059
0.26131 -0.128332 0.807107
0.24682 -0.136747 0.812274
0.247068 -0.13555 0.814408
0.248492 -0.129677 0.796135
0.257336 -0.128138 0.806237
0.258329 -0.129011 0.814065
0.234082 -0.128536 0.761168
0.246775 -0.125906 0.792686
0.249188 -0.128782 0.801848
0.242521 -0.138302 0.778863
0.256914 -0.12879 0.811435
0.24387 -0.137349 0.813089
0.251157 -0.125878 0.786892
0.248133 -0.131899 0.782088
0.247185 -0.128218 0.804258
0.248747 -0.138827 0.801571
0.246387 -0.136298 0.813137
0.247333 -0.126297 0.793376
0.245451 -0.128173 0.786414
0.240533 -0.138999 0.814671
0.251525 -0.126523 0.796641
0.255325 -0.129287 0.815105
0.258436 -0.129143 0.814272
0.251197 -0.132255 0.781675
0.251872 -0.131865 0.779702
0.237707 -0.138928 0.812811
0.249056 -0.128174 0.789613
0.251822 -0.130558 0.806099
0.250137 -0.132179 0.816377
0.257668 -0.12804 0.805991
0.24207 -0.132318 0.781007
0.244578 -0.13151 0.782731
0.231709 -0.137888 0.782148
0.257309 -0.12807 0.80612
0.246948 -0.129619 0.809512
0.245502 -0.128084 0.8049
0.255643 -0.129472 0.815745
0.228189 -0.140561 0.80139
0.243295 -0.129938 0.804832
0.24996 -0.128937 0.805119
0.243347 -0.129448 0.802816
0.22716 -0.138315 0.775808
0.256993 -0.129262 0.814354
0.236521 -0.138106 0.781169
0.219212 -0.140703 0.781283
0.225082 -0.140573 0.787167
0.242369 -0.137047 0.812908
0.23983 -0.138708 0.812679
0.24394 -0.139194 0.816478
0.240261 -0.129563 0.76202
0.249465 -0.137132 0.81847
0.245988 -0.129108 0.808535
0.246704 -0.129836 0.812746
0.243324 -0.127584 0.803606
0.233534 -0.129622 0.763961
0.255553 -0.12941 0.815532
0.261147 -0.129111 0.812878
0.251226 -0.13307 0.816008
0.232229 -0.13744 0.803935
0.265199 -0.130019 0.791125
0.269248 -0.125717 0.799364
0.251202 -0.12865 0.80891
0.24963 -0.131907 0.814066
0.265065 -0.128141 0.812806
0.272437 -0.129258 0.793096
0.256987 -0.128887 0.811592
0.244837 -0.135921 0.815523
0.244198 -0.13664 0.810762
0.263016 -0.128837 0.786013
0.238218 -0.137199 0.807497
0.250199 -0.1301 0.817694
0.252078 -0.130196 0.8182
0.243189 -0.136951 0.812691
0.247688 -0.130232 0.819333
0.242134 -0.130483 0.816121
0.260612 -0.132258 0.782991
0.253781 -0.123606 0.780038
0.264564 -0.137087 0.784914
0.267217 -0.127646 0.810336
0.244647 -0.137534 0.812645
0.263692 -0.128846 0.811719
0.263671 -0.127763 0.799208
0.255605 -0.129625 0.815473
0.246361 -0.136945 0.81241
0.266178 -0.135874 0.790647
0.242336 -0.131721 0.785285
0.261135 -0.128986 0.812726
0.265966 -0.128324 0.810277
0.252225 -0.136342 0.778844
0.264585 -0.137145 0.785728
0.263193 -0.13662 0.78215
0.235839 -0.127132 0.792362
0.248409 -0.129319 0.804633
0.264559 -0.137094 0.785315
0.251577 -0.135897 0.781667
0.246377 -0.137098 0.811474
0.248795 -0.137001 0.813892
0.264153 -0.132918 0.786491
0.264398 -0.13333 0.786421
0.263171 -0.136505 0.783288
0.24622 -0.137315 0.809704
0.267004 -0.126753 0.801916
0.251395 -0.133124 0.816151
0.263471 -0.126463 0.78971
0.253507 -0.123296 0.779156
0.264892 -0.128105 0.791829
0.244624 -0.12893 0.793535
0.252171 -0.130627 0.817828
0.234897 -0.137614 0.805789
0.248227 -0.13087 0.819071
0.262163 -0.126867 0.798669
0.25828 -0.129217 0.813999
0.249337 -0.137793 0.777971
0.264851 -0.12618 0.798078
0.250769 -0.135972 0.773423
0.246102 -0.138157 0.779361
0.247584 -0.12707 0.798602
0.263709 -0.128807 0.811706
0.247492 -0.128133 0.805189
0.250357 -0.130324 0.820483
0.262095 -0.129762 0.81506
0.264825 -0.12867 0.813074
0.227378 -0.139843 0.796792
0.264504 -0.137113 0.786418
0.261311 -0.1272 0.802487
0.263453 -0.127084 0.797341
0.241151 -0.136945 0.789208
0.263662 -0.127753 0.79915
0.26295 -0.128509 0.784816
0.245931 -0.138129 0.778671
0.264405 -0.133258 0.786582
0.247075 -0.135004 0.811163
0.264873 -0.127783 0.791054
0.236301 -0.133392 0.782356
0.246206 -0.128482 0.805595
0.263531 -0.126472 0.789997
0.247318 -0.137195 0.812332
0.262976 -0.128667 0.785335
0.263741 -0.128536 0.811375
0.265159 -0.129452 0.789961
0.247621 -0.126502 0.784552
0.263212 -0.136648 0.783262
0.241843 -0.136889 0.811824
0.266282 -0.135205 0.78841
0.254129 -0.123968 0.780853
0.26213 -0.125267 0.794687
0.247072 -0.129528 0.811799
0.248227 -0.136184 0.813396
0.264468 -0.136802 0.783953
0.26349 -0.127415 0.797745
0.237812 -0.138232 0.808948
0.246686 -0.136637 0.812108
0.263247 -0.126662 0.80246
0.213019 -0.129414 0.755518
0.218431 -0.134327 0.754407
0.264907 -0.126158 0.797934
0.264536 -0.124511 0.791139
0.257317 -0.128063 0.806165
0.270424 -0.12622 0.798376
0.26066 -0.129087 0.812282
0.27089 -0.126994 0.798368
0.266014 -0.128443 0.810361
0.265355 -0.129593 0.792298
0.249016 -0.128704 0.80167
0.22563 -0.134797 0.785332
0.269696 -0.126746 0.802359
0.261185 -0.126797 0.793702
0.265972 -0.128288 0.810231
0.258947 -0.128686 0.810639
0.269567 -0.126803 0.802307
0.262395 -0.127465 0.804076
0.266128 -0.131997 0.791561
0.249074 -0.129192 0.805658
0.266744 -0.126136 0.797934
0.262248 -0.127062 0.798877
0.244716 -0.128327 0.807961
0.249413 -0.127556 0.785417
0.264106 -0.126473 0.797342
0.269565 -0.126869 0.802423
0.256028 -0.130102 0.816004
0.258418 -0.12948 0.814332
0.267881 -0.128702 0.812929
0.266837 -0.138357 0.79023
0.245542 -0.129144 0.807251
0.261034 -0.13717 0.781094
0.242806 -0.129228 0.80223
0.264744 -0.128619 0.812924
0.264864 -0.128131 0.791873
0.25626 -0.127864 0.810033
0.26564 -0.126277 0.798478
0.264693 -0.125602 0.788816
0.262271 -0.127126 0.795222
0.242919 -0.129176 0.804641
0.260684 -0.129216 0.812395
0.264582 -0.137137 0.785318
0.268961 -0.127914 0.808756
0.270315 -0.126089 0.79802
0.262422 -0.127348 0.798442
0.246974 -0.129988 0.816169
0.245351 -0.136898 0.808578
0.270774 -0.126867 0.798584
0.242697 -0.129177 0.802071
0.259721 -0.128733 0.810465
0.256965 -0.128868 0.81152
0.248661 -0.129413 0.8049
0.245042 -0.12909 0.807217
0.246871 -0.135461 0.814104
0.26809 -0.133403 0.788502
0.249932 -0.129899 0.81748
0.246939 -0.129444 0.809414
0.264388 -0.133115 0.786308
0.270346 -0.126174 0.798031
0.265991 -0.128377 0.810298
0.263377 -0.134453 0.783908
0.253466 -0.131632 0.779563
0.266261 -0.131944 0.79138
0.264396 -0.13305 0.786264
0.264779 -0.126392 0.798556
0.249201 -0.129252 0.804165
0.252003 -0.133921 0.779018
0.264609 -0.126674 0.791687
0.227281 -0.139378 0.785939
0.258709 -0.131322 0.77862
0.259422 -0.131778 0.781141
0.232411 -0.138087 0.783008
0.257913 -0.136257 0.773952
0.262136 -0.126277 0.797143
0.262799 -0.127137 0.792301
0.228816 -0.136543 0.788124
0.24552 -0.128333 0.799263
0.257342 -0.124003 0.783627
0.259546 -0.127846 0.805568
0.248735 -0.130505 0.792746
0.247711 -0.126426 0.784731
0.250214 -0.133537 0.788925
0.252341 -0.130617 0.798412
0.248982 -0.12793 0.785335
0.247018 -0.137273 0.783601
0.249983 -0.129696 0.797918
0.245085 -0.128987 0.807283
0.235699 -0.128516 0.794787
0.246047 -0.137081 0.811335
0.248117 -0.129751 0.814369
0.242397 -0.128939 0.801945
0.232518 -0.127765 0.756948
0.240066 -0.123082 0.76702
0.232746 -0.137183 0.802028
0.247336 -0.129341 0.810568
0.247128 -0.136712 0.812521
0.247993 -0.129824 0.813582
0.234441 -0.13993 0.802514
0.25114 -0.133023 0.815988
0.27264 -0.126989 0.798854
0.249379 -0.124088 0.781766
0.221295 -0.139098 0.769914
0.244222 -0.127499 0.794141
0.247401 -0.138232 0.782159
0.252084 -0.134016 0.779043
0.260202 -0.133042 0.780923
0.247079 -0.128323 0.805866
0.272714 -0.126956 0.798735
0.271031 -0.128636 0.792655
0.263401 -0.126476 0.789601
0.259667 -0.128633 0.810372
0.234189 -0.130139 0.788969
0.237474 -0.127948 0.79464
0.272234 -0.130281 0.786623
0.273398 -0.128394 0.796584
0.253572 -0.129214 0.809192
0.260243 -0.132862 0.780232
0.234066 -0.137036 0.779573
0.259587 -0.129199 0.813514
0.264608 -0.126772 0.792203
0.272324 -0.1262 0.799884
0.261915 -0.128809 0.812241
0.268234 -0.126132 0.797698
0.274635 -0.129058 0.790843
0.232639 -0.134515 0.788855
0.254808 -0.131468 0.779005
0.274481 -0.128619 0.791136
0.224435 -0.131658 0.785612
0.274572 -0.128687 0.790946
0.230442 -0.134379 0.788375
0.250516 -0.129553 0.814765
0.244109 -0.126381 0.79123
0.265392 -0.129624 0.792141
0.248535 -0.129224 0.804545
0.272655 -0.128998 0.792303
0.265867 -0.138808 0.787829
0.235851 -0.132062 0.792304
0.271958 -0.126262 0.799511
0.272138 -0.126284 0.799681
0.242842 -0.129432 0.800647
0.263878 -0.132726 0.786498
0.265496 -0.127182 0.803665
0.266932 -0.135183 0.785003
0.27062 -0.125758 0.79747
0.27215 -0.126409 0.80017
0.242077 -0.126739 0.792059
0.263766 -0.127644 0.810365
0.27452 -0.127577 0.790132
0.268204 -0.126201 0.797787
0.266041 -0.13203 0.792076
0.233113 -0.133688 0.78342
0.235215 -0.138236 0.781699
0.235306 -0.138272 0.781949
0.272256 -0.126282 0.800014
0.232674 -0.137677 0.783855
0.244243 -0.126829 0.791786
0.272031 -0.127944 0.793658
0.271014 -0.130813 0.790776
0.247079 -0.127832 0.80474
0.227454 -0.13674 0.786238
0.271247 -0.127315 0.793543
0.237431 -0.126108 0.791334
0.256191 -0.125371 0.775141
0.245221 -0.1279 0.804693
0.272973 -0.129409 0.78847
0.274225 -0.129275 0.790943
0.273526 -0.134147 0.787065
0.267292 -0.133866 0.793458
0.272902 -0.129625 0.789186
0.270359 -0.125851 0.797612
0.268966 -0.127905 0.80879
0.272544 -0.127107 0.799127
0.260797 -0.1266 0.790729
0.262146 -0.12885 0.812225
0.263906 -0.128931 0.812166
0.260306 -0.125159 0.786916
0.244751 -0.127892 0.795163
0.270596 -0.137641 0.791641
0.259649 -0.129327 0.813656
0.272358 -0.129928 0.785831
0.244929 -0.128495 0.808204
0.260357 -0.129162 0.811873
0.267265 -0.127601 0.794784
0.23452 -0.134978 0.787236
0.256323 -0.125552 0.776295
0.245585 -0.128151 0.80515
0.264472 -0.135378 0.784566
0.27448 -0.13215 0.790297
0.247705 -0.126579 0.782198
0.259479 -0.127624 0.805311
0.259582 -0.127675 0.805341
0.229083 -0.134181 0.786978
0.256152 -0.12756 0.805659
0.248892 -0.129861 0.796823
0.255615 -0.128567 0.809024
0.246006 -0.133888 0.79155
0.253282 -0.128426 0.807897
0.248804 -0.129435 0.804987
0.262985 -0.128825 0.798539
0.249448 -0.129038 0.809988
0.2314 -0.132036 0.791803
0.255084 -0.136071 0.778542
0.267689 -0.126858 0.801909
0.262902 -0.129103 0.799246
0.26318 -0.127468 0.798129
0.271345 -0.12762 0.807405
0.266351 -0.128876 0.8112
0.267084 -0.128544 0.811676
0.269386 -0.128573 0.810708
0.263699 -0.128761 0.81164
0.26479 -0.128179 0.791831
0.276937 -0.135311 0.793866
0.267037 -0.129802 0.795609
0.244904 -0.127718 0.804448
0.264608 -0.126719 0.79224
0.247147 -0.128272 0.807349
0.248686 -0.128669 0.803285
0.266715 -0.126336 0.798288
0.267091 -0.126219 0.79835
0.268902 -0.127983 0.808904
0.271136 -0.126177 0.800128
0.265468 -0.127445 0.804089
0.267092 -0.129838 0.795648
0.246695 -0.127536 0.804265
0.266344 -0.133567 0.789525
0.256969 -0.127963 0.806288
0.234304 -0.128103 0.793619
0.245335 -0.130131 0.793152
0.247574 -0.127842 0.79266
0.243423 -0.137203 0.778672
0.263955 -0.126162 0.796828
0.26456 -0.135525 0.785235
0.264847 -0.128091 0.791832
0.267661 -0.134707 0.794036
0.273858 -0.129283 0.79114
0.240451 -0.128123 0.784055
0.26668 -0.134613 0.788643
0.246799 -0.127993 0.803751
0.274277 -0.127091 0.799377
0.235652 -0.13452 0.788894
0.273241 -0.134359 0.787939
0.263537 -0.127454 0.798344
0.245772 -0.128468 0.799533
0.267496 -0.132081 0.794866
0.236151 -0.136628 0.783725
0.252134 -0.1286 0.808569
0.246719 -0.128994 0.802855
0.255576 -0.132688 0.802433
0.259837 -0.127849 0.805417
0.268878 -0.128074 0.808983
0.230605 -0.135706 0.785984
0.266864 -0.13718 0.790368
0.273089 -0.13452 0.788592
0.26702 -0.127472 0.805743
0.262353 -0.127833 0.794999
0.236614 -0.133805 0.785316
0.246388 -0.128687 0.797299
0.249603 -0.129198 0.796569
0.236098 -0.134558 0.784448
0.245711 -0.130281 0.793633
0.267251 -0.126616 0.804504
0.270522 -0.126952 0.792684
0.266223 -0.135893 0.790472
0.263016 -0.129179 0.799135
0.265704 -0.126417 0.798756
0.235061 -0.134163 0.786883
0.236016 -0.133722 0.784505
0.253727 -0.131899 0.779352
0.25144 -0.127777 0.78004
0.251637 -0.135847 0.782234
0.251659 -0.127934 0.780604
0.235986 -0.132892 0.78195
0.24918 -0.129406 0.804431
0.256758 -0.128174 0.806517
0.236787 -0.136234 0.771509
0.23397 -0.13258 0.794482
0.274573 -0.128877 0.796421
0.277037 -0.130771 0.795274
0.250618 -0.130521 0.796276
0.246692 -0.127576 0.804366
0.243992 -0.126302 0.791119
0.275854 -0.126522 0.800357
0.27586 -0.125362 0.796216
0.275631 -0.130496 0.792705
0.259632 -0.12809 0.805995
0.277181 -0.133845 0.794524
0.277381 -0.13548 0.794559
0.243938 -0.128464 0.798831
0.244327 -0.130528 0.796023
0.266979 -0.127532 0.805829
0.277336 -0.136542 0.793628
0.270894 -0.128753 0.792872
0.274601 -0.12912 0.790875
0.276035 -0.132865 0.792334
0.275614 -0.132772 0.791799
0.277542 -0.133939 0.794727
0.263465 -0.127919 0.798968
0.249019 -0.130549 0.798101
0.249222 -0.128594 0.804148
0.2593 -0.127808 0.805507
0.273761 -0.128876 0.796566
0.27097 -0.137535 0.789793
0.277023 -0.130786 0.795306
0.274894 -0.135037 0.790466
0.275005 -0.129789 0.790439
0.238237 -0.13281 0.783117
0.27558 -0.133487 0.791623
0.274545 -0.129309 0.790986
0.261276 -0.127982 0.806588
0.275038 -0.132346 0.791098
0.275829 -0.132358 0.792275
0.264609 -0.126991 0.792527
0.261106 -0.131139 0.783339
0.270395 -0.137729 0.792439
0.273546 -0.128275 0.803037
0.275641 -0.130466 0.792694
0.276744 -0.136262 0.793521
0.276979 -0.136543 0.793665
0.274835 -0.129167 0.796397
0.277013 -0.130774 0.795288
0.247856 -0.133234 0.789672
0.248971 -0.128782 0.802456
0.257901 -0.136215 0.774024
0.276403 -0.132137 0.793004
0.276742 -0.13263 0.793948
0.277261 -0.133801 0.794436
0.235325 -0.136986 0.781411
0.248538 -0.127303 0.802574
0.274989 -0.134944 0.790148
0.275906 -0.126642 0.800318
0.270993 -0.126466 0.79867
0.276989 -0.130776 0.795315
0.273981 -0.126585 0.794463
0.27378 -0.128883 0.796537
0.276691 -0.132301 0.794121
0.276344 -0.132537 0.793211
0.262367 -0.128905 0.799779
0.26402 -0.136956 0.785011
0.260938 -0.137131 0.780253
0.275243 -0.136306 0.790815
0.273771 -0.128834 0.796513
0.247184 -0.128352 0.803627
0.248758 -0.128992 0.796087
0.274968 -0.136207 0.79008
0.271282 -0.127733 0.807526
0.275611 -0.126754 0.800775
0.249039 -0.128793 0.796122
0.249307 -0.129464 0.804636
0.265255 -0.129445 0.792206
0.240686 -0.13303 0.784752
0.249769 -0.129514 0.804782
0.2752 -0.136165 0.789701
0.275633 -0.125604 0.796513
0.276645 -0.125924 0.794692
0.276315 -0.126832 0.795904
0.254638 -0.135969 0.776497
0.27688 -0.130786 0.795391
0.239266 -0.132665 0.781786
0.26482 -0.128081 0.807832
0.248678 -0.128765 0.804018
0.276324 -0.126912 0.795834
0.272151 -0.126629 0.799647
0.265101 -0.129957 0.791587
0.245849 -0.137029 0.780495
0.244614 -0.127677 0.794834
0.243462 -0.128085 0.78414
0.246116 -0.134785 0.78185
0.272299 -0.134441 0.803146
0.275863 -0.128165 0.793964
0.274386 -0.12604 0.793333
0.267487 -0.126809 0.801987
0.243356 -0.129891 0.787232
0.272713 -0.129774 0.797469
0.237574 -0.137839 0.784609
0.271142 -0.127451 0.792864
0.26573 -0.126192 0.798335
0.274335 -0.12846 0.796404
0.273846 -0.129326 0.790793
0.277619 -0.13042 0.793999
0.274878 -0.135014 0.790475
0.275538 -0.132802 0.792145
0.262574 -0.12927 0.800681
0.251071 -0.12912 0.793003
0.264409 -0.126227 0.794498
0.257943 -0.136166 0.774198
0.260781 -0.130605 0.780387
0.264168 -0.127288 0.804598
0.265694 -0.127096 0.802801
0.270683 -0.128947 0.792598
0.242709 -0.128081 0.790284
0.274936 -0.129102 0.789876
0.246903 -0.129365 0.788239
0.27461 -0.128302 0.790744
0.270868 -0.129034 0.792558
0.262968 -0.128089 0.796654
0.248828 -0.129503 0.794158
0.273905 -0.129286 0.790628
0.275017 -0.134913 0.791693
0.274555 -0.130852 0.790461
0.249432 -0.12908 0.796902
0.275103 -0.129712 0.790483
0.272166 -0.126719 0.799557
0.255832 -0.127517 0.775473
0.257016 -0.126404 0.778947
0.24593 -0.130103 0.784572
0.248228 -0.12832 0.794655
0.27719 -0.132575 0.79491
0.247663 -0.128164 0.78268
0.257574 -0.128624 0.806891
0.277411 -0.134349 0.794798
0.239258 -0.133094 0.784671
0.261204 -0.127909 0.806544
0.247541 -0.128265 0.787274
0.246487 -0.134048 0.781607
0.245833 -0.130112 0.784403
0.276363 -0.126782 0.795863
0.274903 -0.136202 0.790167
0.270548 -0.127909 0.808026
0.274591 -0.130929 0.790417
0.265753 -0.126358 0.798642
0.276457 -0.125619 0.794585
0.276642 -0.13095 0.795317
0.265797 -0.136886 0.797507
0.263388 -0.134415 0.78364
0.240874 -0.133015 0.784872
0.250228 -0.127016 0.795168
0.251863 -0.128344 0.808186
0.245004 -0.131624 0.783543
0.267519 -0.132626 0.794078
0.276352 -0.132497 0.793021
0.245933 -0.128933 0.788505
0.276712 -0.136253 0.793603
0.263676 -0.127562 0.806006
0.277073 -0.13351 0.794544
0.271124 -0.127876 0.807755
0.246511 -0.128372 0.787091
0.275521 -0.12578 0.796742
0.249468 -0.127924 0.804448
0.27199 -0.13768 0.78962
0.276406 -0.132492 0.792992
0.276867 -0.13296 0.794133
0.263663 -0.128072 0.806716
0.24763 -0.127052 0.798772
0.276065 -0.132835 0.792272
0.272808 -0.128948 0.792049
0.243573 -0.128211 0.784546
0.276504 -0.131167 0.794385
0.275431 -0.129934 0.791024
0.276987 -0.135408 0.793975
0.276748 -0.136717 0.794904
0.263107 -0.127358 0.803767
0.24755 -0.130493 0.785996
0.275599 -0.13234 0.790061
0.261685 -0.128807 0.798758
0.267114 -0.126191 0.798239
0.250903 -0.128557 0.797121
0.266681 -0.126432 0.798477
0.276851 -0.136607 0.793977
0.254599 -0.128147 0.807521
0.264903 -0.129248 0.799507
0.271731 -0.127524 0.807682
0.246533 -0.129185 0.786086
0.263481 -0.127274 0.797338
0.275904 -0.128164 0.794074
0.277382 -0.133037 0.794871
0.236312 -0.137117 0.782791
0.24709 -0.128991 0.785917
0.277195 -0.135026 0.793454
0.249879 -0.123621 0.78202
0.276942 -0.135552 0.795232
0.276662 -0.133021 0.793431
0.276217 -0.131265 0.794817
0.277467 -0.133022 0.79464
0.276976 -0.134104 0.79431
0.277435 -0.133893 0.794839
0.274681 -0.130029 0.791052
0.272075 -0.137684 0.7894
0.274716 -0.133297 0.797494
0.27609 -0.13557 0.79189
0.276268 -0.12693 0.795949
0.275602 -0.130523 0.792783
0.27533 -0.136245 0.790589
0.277992 -0.134937 0.792196
0.265174 -0.12996 0.791151
0.263726 -0.126988 0.802977
0.27672 -0.135641 0.791835
0.245505 -0.132587 0.781356
0.267079 -0.126267 0.79839
0.275004 -0.135083 0.790324
0.275176 -0.136249 0.790936
0.247654 -0.130091 0.794419
0.276698 -0.13239 0.794086
0.250042 -0.136268 0.77641
0.243299 -0.130891 0.780838
0.243744 -0.126359 0.791372
0.267786 -0.133933 0.792402
0.276557 -0.13239 0.794288
0.265313 -0.129616 0.792593
0.250933 -0.136454 0.77937
0.276069 -0.135776 0.79198
0.274467 -0.13635 0.792543
0.243519 -0.129862 0.787469
0.27398 -0.129428 0.790174
0.246822 -0.127062 0.787402
0.259923 -0.129031 0.798338
0.265312 -0.129668 0.792897
0.266613 -0.126525 0.798648
0.256602 -0.128305 0.806985
0.253486 -0.131571 0.779701
0.263356 -0.134431 0.783748
0.247557 -0.129987 0.78204
0.247701 -0.129748 0.785497
0.245344 -0.128818 0.787166
0.247379 -0.129174 0.786794
0.275162 -0.132442 0.790869
0.275397 -0.135028 0.789529
0.274543 -0.135304 0.791728
0.246049 -0.129191 0.784932
0.247835 -0.127858 0.783524
0.266184 -0.13202 0.791752
0.287045 -0.126836 0.763429
0.26123 -0.126308 0.798138
0.274577 -0.132536 0.791576
0.273579 -0.126726 0.795268
0.248741 -0.129291 0.792187
0.244633 -0.126601 0.794418
0.276607 -0.132675 0.792633
0.247423 -0.133395 0.781341
0.267224 -0.13382 0.792528
0.276887 -0.127127 0.80246
0.276499 -0.136308 0.792086
0.242076 -0.129421 0.787068
0.259391 -0.127471 0.805109
0.271303 -0.128065 0.808342
0.247119 -0.128086 0.7883
0.276466 -0.137059 0.798921
0.246791 -0.125877 0.792863
0.277615 -0.135422 0.79407
0.253341 -0.131075 0.799106
0.251491 -0.126416 0.796571
0.269652 -0.126851 0.802562
0.263131 -0.129197 0.799385
0.259522 -0.127787 0.805557
0.271326 -0.12681 0.800852
0.263652 -0.127942 0.806549
0.274496 -0.131282 0.790852
0.246268 -0.127862 0.788203
0.276707 -0.132688 0.794092
0.276983 -0.135768 0.793747
0.286487 -0.115048 0.778432
0.276185 -0.133394 0.799913
0.25303 -0.130822 0.798353
0.276083 -0.126359 0.801324
0.271206 -0.12775 0.807599
0.247083 -0.128602 0.788084
0.24875 -0.12774 0.785089
0.270199 -0.12665 0.799593
0.27613 -0.126769 0.800228
0.276216 -0.136687 0.79962
0.27678 -0.126719 0.802669
0.277151 -0.133891 0.794487
0.249611 -0.130718 0.793568
0.276363 -0.1285 0.796449
0.277496 -0.133884 0.794739
0.270452 -0.126141 0.798273
0.246727 -0.12923 0.783621
0.276033 -0.136697 0.7999
0.27674 -0.132257 0.794083
0.247735 -0.122881 0.782161
0.249055 -0.129195 0.794766
0.246178 -0.127844 0.78807
0.248594 -0.13019 0.784348
0.262909 -0.129236 0.798664
0.276988 -0.126507 0.802425
0.274296 -0.135281 0.783889
0.273364 -0.134156 0.787339
0.241385 -0.136855 0.780894
0.244555 -0.127061 0.792508
0.271326 -0.127138 0.793329
0.241327 -0.1285 0.785866
0.264853 -0.128912 0.799021
0.277514 -0.133041 0.794831
0.270925 -0.126994 0.801193
0.276195 -0.133408 0.7999
0.243278 -0.125651 0.792291
0.277051 -0.135029 0.787542
0.271717 -0.125546 0.798895
0.277393 -0.132321 0.789268
0.275795 -0.130463 0.792386
0.277547 -0.133953 0.794718
0.2706 -0.128755 0.792282
0.273777 -0.125829 0.796394
0.276048 -0.135495 0.791978
0.273355 -0.128399 0.796663
0.251376 -0.123985 0.783236
0.276686 -0.13268 0.794092
0.277676 -0.132389 0.794021
0.27628 -0.135305 0.792191
0.246559 -0.128688 0.784088
0.25009 -0.135532 0.783695
0.24941 -0.124958 0.78557
0.275551 -0.135611 0.791512
0.248081 -0.127603 0.785267
0.276751 -0.135876 0.794244
0.275977 -0.136515 0.793798
0.268017 -0.134724 0.792256
0.276027 -0.1323 0.792365
0.27693 -0.125017 0.79727
0.248092 -0.132107 0.779678
0.27116 -0.129619 0.790301
0.275396 -0.1351 0.790766
0.263479 -0.128101 0.79898
0.245375 -0.135882 0.783424
0.262192 -0.12719 0.799277
0.248796 -0.132149 0.781189
0.267633 -0.133704 0.791979
0.263496 -0.126516 0.789877
0.24448 -0.135681 0.78151
0.245298 -0.135816 0.783065
0.262682 -0.127276 0.805134
0.266457 -0.136073 0.792134
0.257464 -0.123929 0.783577
0.257419 -0.123329 0.782315
0.253888 -0.136147 0.779141
0.273909 -0.128069 0.792571
0.245812 -0.137091 0.780257
0.264189 -0.132932 0.786698
0.247067 -0.128915 0.785159
0.247542 -0.12964 0.78524
0.261058 -0.13306 0.789102
0.246191 -0.132624 0.782755
0.24665 -0.125786 0.79254
0.236921 -0.127774 0.756482
0.26028 -0.136179 0.779663
0.24533 -0.130635 0.785143
0.242775 -0.132302 0.782113
0.245067 -0.128177 0.783335
0.27688 -0.130299 0.795584
0.2471 -0.13142 0.782004
0.276904 -0.133446 0.794065
0.245754 -0.128601 0.784516
0.246719 -0.131716 0.783146
0.245257 -0.128359 0.786308
0.24668 -0.134137 0.782015
0.263227 -0.12806 0.799203
0.273392 -0.134978 0.787069
0.247912 -0.128107 0.784484
0.247538 -0.132313 0.78203
0.276777 -0.12663 0.802652
0.251022 -0.133042 0.780977
0.273969 -0.125875 0.794471
0.276305 -0.127262 0.804609
0.276406 -0.125651 0.794643
0.272258 -0.126396 0.799612
0.249911 -0.124569 0.782549
0.264602 -0.126635 0.792098
0.276192 -0.126501 0.801817
0.277413 -0.135384 0.79446
0.27478 -0.1291 0.796415
0.273918 -0.125985 0.794418
0.252271 -0.136024 0.773043
0.24778 -0.132456 0.782649
0.275941 -0.133853 0.799347
0.24635 -0.125545 0.78065
0.267072 -0.136481 0.787375
0.276666 -0.128117 0.796266
0.245553 -0.132301 0.781285
0.274194 -0.129125 0.790645
0.24669 -0.129462 0.786455
0.263155 -0.127527 0.798491
0.24971 -0.127687 0.794777
0.277385 -0.135448 0.794509
0.254148 -0.124105 0.780728
0.276456 -0.136413 0.792781
0.26296 -0.128033 0.804772
0.250536 -0.127359 0.7958
0.275 -0.132461 0.790866
0.274002 -0.127188 0.805315
0.24439 -0.12894 0.784552
0.276698 -0.136704 0.799674
0.271974 -0.128021 0.793659
0.277864 -0.126843 0.801623
0.274434 -0.125369 0.793164
0.275966 -0.130839 0.793112
0.274042 -0.128271 0.796557
0.266633 -0.12656 0.79867
0.271462 -0.125827 0.796762
0.272274 -0.126396 0.799532
0.253713 -0.131826 0.779946
0.276979 -0.135798 0.793848
0.267599 -0.131193 0.793489
0.266179 -0.132166 0.792074
0.277029 -0.133496 0.79414
0.245974 -0.129116 0.787429
0.263587 -0.127906 0.799359
0.244288 -0.128951 0.784389
0.267895 -0.133846 0.793297
0.244926 -0.126537 0.785399
0.275973 -0.13381 0.799383
0.245953 -0.134778 0.781568
0.249075 -0.126798 0.784659
0.263213 -0.128482 0.797134
0.274081 -0.12839 0.796586
0.276888 -0.133599 0.794422
0.276902 -0.136508 0.793725
0.249538 -0.126391 0.793162
0.245454 -0.126823 0.784639
0.260348 -0.132927 0.781123
0.273942 -0.129387 0.790205
0.264897 -0.129263 0.799529
0.265739 -0.127388 0.803136
0.275658 -0.135567 0.79116
0.261176 -0.126436 0.798332
0.264551 -0.129457 0.795783
0.265698 -0.137002 0.799415
0.276114 -0.132854 0.792127
0.277693 -0.133825 0.794357
0.275606 -0.130487 0.792765
0.26261 -0.130051 0.800372
0.248264 -0.129046 0.78632
0.272056 -0.127926 0.793444
0.247199 -0.128712 0.787669
0.272627 -0.127308 0.792363
0.275508 -0.135172 0.791233
0.240494 -0.132272 0.781258
0.266599 -0.136727 0.791911
0.264529 -0.13545 0.784708
0.248849 -0.120917 0.775163
0.259032 -0.13349 0.778034
0.248343 -0.131944 0.780017
0.26317 -0.128986 0.798903
0.276965 -0.135453 0.794001
0.258791 -0.124662 0.783899
0.277586 -0.133035 0.794752
0.263682 -0.127743 0.799195
0.27656 -0.136241 0.800486
0.275945 -0.132888 0.792509
0.261368 -0.128694 0.798336
0.277648 -0.12387 0.794979
0.26577 -0.126351 0.798601
0.263365 -0.12646 0.78953
0.276864 -0.133488 0.79422
0.264688 -0.126355 0.798617
0.252565 -0.133386 0.779535
0.26473 -0.126859 0.802729
0.24707 -0.128101 0.784515
0.274557 -0.128898 0.796453
0.277664 -0.135873 0.794235
0.277827 -0.135769 0.793311
0.275996 -0.132445 0.79281
0.268618 -0.126769 0.801485
0.257467 -0.136088 0.7718
0.271664 -0.125604 0.795212
0.266187 -0.127478 0.803172
0.274608 -0.131348 0.790675
0.277526 -0.133022 0.794755
0.270964 -0.126277 0.798118
0.262278 -0.127473 0.799718
0.26707 -0.126945 0.802254
0.268096 -0.126747 0.801619
0.267679 -0.134128 0.793463
0.251788 -0.126105 0.79461
0.277033 -0.124135 0.793087
0.260672 -0.124252 0.78529
0.247437 -0.132408 0.781791
0.246887 -0.131791 0.783457
0.262157 -0.127096 0.799066
0.273859 -0.126793 0.794759
0.277503 -0.135885 0.794441
0.276732 -0.136266 0.800225
0.264053 -0.136915 0.78304
0.27552 -0.125901 0.796412
0.265401 -0.127015 0.803524
0.246169 -0.130283 0.785069
0.271818 -0.136219 0.78677
0.270132 -0.126523 0.799454
0.269985 -0.126593 0.798854
0.264349 -0.129301 0.799768
0.2713 -0.126017 0.797014
0.249853 -0.127114 0.78728
0.246168 -0.134012 0.780858
0.275734 -0.126363 0.800737
0.263269 -0.127976 0.799414
0.249607 -0.125191 0.785796
0.263457 -0.128073 0.799045
0.274054 -0.125566 0.795971
0.248259 -0.131542 0.784295
0.276546 -0.13316 0.792915
0.276315 -0.134652 0.777416
0.270633 -0.12706 0.799553
0.263393 -0.127071 0.798612
0.276383 -0.12575 0.794756
0.275053 -0.133616 0.790265
0.273587 -0.132483 0.786581
0.270524 -0.125884 0.798312
0.275461 -0.133483 0.791719
0.275802 -0.134984 0.790832
0.275394 -0.127355 0.793469
0.248324 -0.130526 0.783908
0.266293 -0.136174 0.788886
0.267198 -0.133601 0.793123
0.25784 -0.123406 0.782858
0.257929 -0.123618 0.783233
0.253078 -0.133125 0.777255
0.264656 -0.126382 0.798744
0.251743 -0.123925 0.782822
0.247193 -0.127962 0.783901
0.26494 -0.128826 0.7986
0.276591 -0.133168 0.792926
0.262134 -0.127123 0.799264
0.276753 -0.127257 0.802561
0.273424 -0.128641 0.796723
0.24697 -0.131262 0.7794
0.265578 -0.126614 0.7996
0.276406 -0.131175 0.794435
0.250868 -0.131924 0.781099
0.262552 -0.126713 0.800036
0.248793 -0.124213 0.782014
0.276164 -0.13338 0.799918
0.266285 -0.130494 0.79934
0.253735 -0.136127 0.778494
0.251654 -0.123789 0.782239
0.246843 -0.125752 0.781501
0.274305 -0.1286 0.792816
0.270239 -0.135249 0.798359
0.264871 -0.12656 0.798663
0.262557 -0.126738 0.800048
0.265185 -0.126789 0.799802
0.274436 -0.128059 0.791312
0.250824 -0.132004 0.780722
0.263013 -0.128469 0.798905
0.26368 -0.127784 0.799272
0.262897 -0.129042 0.799088
0.259008 -0.127207 0.794826
0.248752 -0.124389 0.784049
0.26362 -0.128418 0.799068
0.273577 -0.128564 0.796513
0.273518 -0.125744 0.797078
0.252446 -0.125329 0.792958
0.27249 -0.127003 0.799045
0.276481 -0.125129 0.797018
0.263642 -0.127963 0.79948
0.250873 -0.124012 0.784141
0.270898 -0.126422 0.797821
0.262986 -0.12877 0.79951
0.274875 -0.129216 0.796388
0.252727 -0.13344 0.779892
0.271983 -0.12378 0.795009
0.272325 -0.126263 0.799954
0.274079 -0.127111 0.805224
0.276293 -0.125701 0.79481
0.277356 -0.13215 0.791773
0.254616 -0.131528 0.778634
0.270779 -0.129951 0.791476
0.274545 -0.12886 0.796435
0.276341 -0.13225 0.790685
0.254851 -0.132971 0.77846
0.276874 -0.132966 0.794269
0.27596 -0.129849 0.788633
0.251184 -0.124189 0.784485
0.264866 -0.128735 0.798632
0.261771 -0.126817 0.799075
0.276605 -0.132729 0.795512
0.24778 -0.131009 0.78231
0.276299 -0.13533 0.792193
0.274491 -0.132091 0.790262
0.24826 -0.131932 0.782364
0.261207 -0.126516 0.79847
0.277525 -0.13583 0.793909
0.258778 -0.13129 0.779239
0.275477 -0.129959 0.790978
0.276908 -0.132963 0.794283
0.260065 -0.131949 0.780773
0.271376 -0.130701 0.789731
0.27691 -0.132938 0.794149
0.273758 -0.133572 0.796445
0.257077 -0.129123 0.775655
0.270863 -0.131027 0.791138
0.275937 -0.126457 0.801453
0.265016 -0.129395 0.79051
0.274991 -0.135792 0.790396
0.27621 -0.135622 0.791641
0.276408 -0.134551 0.792576
0.274841 -0.135831 0.790839
0.274872 -0.129231 0.796402
0.264957 -0.12948 0.790791
0.255559 -0.126396 0.776882
0.274536 -0.128876 0.796452
0.273567 -0.130592 0.793198
0.265385 -0.129566 0.792071
0.273332 -0.125528 0.796025
0.27584 -0.126212 0.800672
0.272243 -0.126385 0.79968
0.259705 -0.129021 0.798411
0.276736 -0.132687 0.794044
0.25057 -0.124914 0.784328
0.263249 -0.128376 0.79972
0.264708 -0.126407 0.798704
0.272723 -0.125836 0.796115
0.251647 -0.124278 0.78413
0.271299 -0.125787 0.796565
0.262141 -0.127178 0.799366
0.276189 -0.125061 0.796001
0.262381 -0.127256 0.799029
0.274105 -0.125518 0.795829
0.259605 -0.128795 0.798032
0.262592 -0.127467 0.799295
0.263061 -0.127826 0.799036
0.270511 -0.126035 0.797283
0.275649 -0.125545 0.796565
0.270776 -0.126571 0.800403
0.263094 -0.127789 0.79904
0.270238 -0.12593 0.797746
0.271098 -0.126144 0.79783
0.262851 -0.128969 0.799057
0.276309 -0.125844 0.794867
0.273757 -0.128917 0.796584
0.275825 -0.132742 0.791517
0.262422 -0.128741 0.799334
0.25379 -0.123528 0.78438
0.250891 -0.123798 0.782629
0.257577 -0.123463 0.782673
0.26279 -0.127859 0.799021
0.271633 -0.126232 0.797263
0.273246 -0.125599 0.795965
0.260419 -0.12852 0.797947
0.274091 -0.128648 0.796761
0.27152 -0.126635 0.800738
0.276546 -0.12947 0.794514
0.262951 -0.128729 0.785562
0.264882 -0.128072 0.791785
0.264134 -0.132953 0.786692
0.260653 -0.124182 0.785111
0.27564 -0.126354 0.800869
0.275936 -0.126412 0.801366
0.274684 -0.131389 0.790565
0.264428 -0.133571 0.786118
0.276792 -0.127205 0.802537
0.2606 -0.132914 0.781833
0.277227 -0.135312 0.79427
0.276161 -0.125235 0.796812
0.274826 -0.135058 0.782445
0.274395 -0.126336 0.793825
0.262781 -0.127453 0.798877
0.27594 -0.132874 0.792477
0.273359 -0.133266 0.796973
0.275545 -0.125952 0.797766
0.26448 -0.133985 0.786255
0.273881 -0.129276 0.791143
0.253614 -0.131749 0.779754
0.251023 -0.124496 0.783738
0.274139 -0.12845 0.796549
0.255649 -0.136747 0.776581
0.265557 -0.126781 0.799794
0.266857 -0.135107 0.786807
0.263954 -0.132527 0.786693
0.261226 -0.13296 0.783081
0.271058 -0.126388 0.800461
0.270144 -0.128945 0.796295
0.275539 -0.13217 0.791824
0.276005 -0.127912 0.800951
0.274539 -0.130953 0.790529
0.268058 -0.136012 0.790399
0.261234 -0.132901 0.782841
0.271073 -0.129758 0.790777
0.254932 -0.123367 0.780099
0.265126 -0.129006 0.791794
0.256001 -0.127668 0.776155
0.262475 -0.126752 0.799971
0.275654 -0.13434 0.791057
0.263916 -0.132649 0.787129
0.275704 -0.132777 0.791743
0.253275 -0.135141 0.777506
0.273655 -0.134138 0.786432
0.272986 -0.128886 0.794498
0.266019 -0.132018 0.792049
0.270795 -0.126569 0.798635
0.263114 -0.128171 0.798907
0.263221 -0.127809 0.798843
0.262855 -0.129025 0.799212
0.266858 -0.131605 0.794902
0.276227 -0.126483 0.80183
0.272319 -0.126285 0.799546
0.260643 -0.124249 0.785301
0.275679 -0.133365 0.791237
0.268991 -0.126643 0.801167
0.263931 -0.126729 0.799506
0.26327 -0.127807 0.79947
0.265022 -0.128692 0.798959
0.260584 -0.135846 0.779499
0.274557 -0.130115 0.791217
0.265581 -0.126625 0.799635
0.276243 -0.126472 0.801817
0.278483 -0.1236 0.795693
0.254733 -0.131355 0.778677
0.272945 -0.132909 0.788451
0.271941 -0.134827 0.790731
0.264607 -0.126669 0.792359
0.266147 -0.131592 0.792167
0.274293 -0.124726 0.783226
0.270085 -0.126646 0.79905
0.250795 -0.124392 0.782276
0.271247 -0.126783 0.797826
0.275549 -0.135703 0.790582
0.263924 -0.126461 0.799158
0.276659 -0.126123 0.799614
0.27585 -0.13229 0.792122
0.275482 -0.133385 0.791507
0.270892 -0.128174 0.792943
0.260729 -0.124393 0.785543
0.274171 -0.127299 0.799439
0.261243 -0.126635 0.798646
0.270388 -0.12609 0.799029
0.250913 -0.124578 0.782558
0.262166 -0.129185 0.79832
0.261488 -0.126979 0.794142
0.275268 -0.125552 0.79505
0.266299 -0.135575 0.788971
0.268186 -0.12731 0.788235
0.261519 -0.128158 0.797621
0.265196 -0.130026 0.791057
0.271004 -0.12718 0.798482
0.273156 -0.125112 0.793296
0.259344 -0.12825 0.782362
0.264103 -0.126182 0.796578
0.271137 -0.126634 0.800515
0.274809 -0.129186 0.796414
0.273766 -0.134412 0.788049
0.25762 -0.123327 0.782529
0.27437 -0.128472 0.792621
0.277202 -0.132236 0.795036
0.272249 -0.127391 0.79949
0.256995 -0.128948 0.775263
0.273118 -0.125159 0.793394
0.273355 -0.128415 0.796651
0.250685 -0.124442 0.782094
0.270948 -0.12571 0.796759
0.276615 -0.133153 0.792862
0.276556 -0.133349 0.794138
0.273118 -0.131577 0.786645
0.261833 -0.126798 0.799283
0.272997 -0.12528 0.793572
0.276322 -0.125225 0.796972
0.272706 -0.124325 0.793246
0.27553 -0.12963 0.795989
0.272734 -0.132111 0.78804
0.270538 -0.126004 0.797258
0.258921 -0.124924 0.784274
0.2752 -0.129839 0.796385
0.276132 -0.127834 0.800814
0.260641 -0.124213 0.785201
0.255953 -0.127618 0.776057
0.277604 -0.133003 0.794608
0.275362 -0.135769 0.790914
0.274623 -0.12501 0.795357
0.275427 -0.135124 0.790685
0.255456 -0.12718 0.775159
0.276239 -0.132071 0.79291
0.27581 -0.126553 0.801538
0.274748 -0.133756 0.791011
0.277393 -0.132145 0.794862
0.273708 -0.12564 0.797201
0.274259 -0.128142 0.791546
0.276893 -0.129016 0.795537
0.276632 -0.130937 0.795325
0.257231 -0.123309 0.781618
0.258686 -0.124553 0.783785
0.255779 -0.126961 0.774616
0.272344 -0.126508 0.800081
0.273308 -0.12562 0.796221
0.276233 -0.135899 0.790737
0.275349 -0.133953 0.790822
0.263266 -0.127776 0.799458
0.277343 -0.132169 0.794758
0.27568 -0.132685 0.791506
0.270012 -0.126238 0.798101
0.263513 -0.128188 0.799072
0.274196 -0.132802 0.796216
0.257325 -0.123454 0.781847
0.2759 -0.127053 0.800574
0.263921 -0.12656 0.799282
0.271926 -0.126119 0.795307
0.272869 -0.125472 0.795591
0.260534 -0.12898 0.797976
0.266495 -0.126563 0.798848
0.260466 -0.128724 0.79807
0.266089 -0.126227 0.796532
0.272643 -0.125737 0.795937
0.260431 -0.128641 0.798169
0.263135 -0.128432 0.798791
0.260434 -0.128828 0.797713
0.265808 -0.126455 0.798743
0.270095 -0.12606 0.797852
0.263159 -0.12893 0.798775
0.263646 -0.128408 0.798957
0.261935 -0.128575 0.799963
0.25871 -0.124592 0.783642
0.260476 -0.12872 0.798251
0.263129 -0.128582 0.799048
0.255185 -0.126099 0.775569
0.26283 -0.128779 0.798696
0.275971 -0.127665 0.795956
0.262341 -0.129475 0.798676
0.272761 -0.12685 0.797818
0.260787 -0.124426 0.785636
0.270499 -0.128849 0.792482
0.256193 -0.125396 0.787875
0.272978 -0.128936 0.791804
0.273537 -0.129029 0.791245
0.253952 -0.123348 0.78042
0.27715 -0.132359 0.789453
0.25422 -0.123661 0.780973
0.276272 -0.125677 0.798468
0.267097 -0.133962 0.793521
0.276352 -0.124707 0.794098
0.273723 -0.128202 0.792829
0.272312 -0.12647 0.800049
0.272331 -0.127266 0.799373
0.263347 -0.134396 0.783552
0.27192 -0.126489 0.80093
0.260898 -0.129536 0.784809
0.264687 -0.12662 0.79902
0.273119 -0.128275 0.793221
0.275602 -0.128606 0.79122
0.262128 -0.129047 0.798061
0.276414 -0.132475 0.793024
0.262923 -0.128531 0.799094
0.275556 -0.125855 0.797712
0.264432 -0.127236 0.791568
0.252311 -0.12473 0.781739
0.26616 -0.134967 0.789654
0.266913 -0.129703 0.79562
0.260161 -0.13212 0.78209
0.275809 -0.127225 0.800659
0.275427 -0.134452 0.791543
0.277189 -0.133721 0.794496
0.277567 -0.133747 0.794696
0.260236 -0.128127 0.797177
0.255634 -0.127502 0.775383
0.264726 -0.128125 0.791546
0.274777 -0.129187 0.796458
0.263165 -0.128953 0.798832
0.264324 -0.126677 0.791678
0.253949 -0.12393 0.780184
0.267113 -0.1298 0.795562
0.26616 -0.133918 0.791753
0.265067 -0.129653 0.791452
0.276096 -0.126041 0.799183
0.267891 -0.126067 0.797019
0.27419 -0.132421 0.788175
0.276693 -0.128082 0.795993
0.267741 -0.126444 0.79759
0.256644 -0.128242 0.777376
0.276686 -0.132644 0.794114
0.263286 -0.125634 0.78989
0.258716 -0.124583 0.783777
0.263669 -0.129893 0.7991
0.272885 -0.131951 0.787575
0.26461 -0.126628 0.792268
0.276107 -0.132832 0.792236
0.267949 -0.126322 0.797195
0.268067 -0.133677 0.792078
0.270926 -0.128544 0.791554
0.263297 -0.133686 0.783602
0.27561 -0.125552 0.796602
0.269997 -0.126194 0.798027
0.265408 -0.129454 0.791698
0.275638 -0.127261 0.800818
0.274967 -0.129204 0.796301
0.277421 -0.132515 0.794627
0.254634 -0.122819 0.779003
0.26701 -0.129711 0.796592
0.270691 -0.130254 0.792213
0.274242 -0.132614 0.787835
0.274257 -0.13034 0.790486
0.260927 -0.129667 0.784655
0.259477 -0.131847 0.780519
0.274439 -0.129185 0.79124
0.265178 -0.129955 0.790802
0.271977 -0.12798 0.79352
0.260861 -0.131079 0.78374
0.277331 -0.132527 0.794721
0.258743 -0.124615 0.783703
0.26616 -0.131429 0.79168
0.276523 -0.134542 0.792427
0.266028 -0.133946 0.790507
0.2762 -0.127035 0.796181
0.267466 -0.130771 0.794472
0.273122 -0.12837 0.793325
0.274458 -0.128845 0.796514
0.276679 -0.133034 0.793428
0.267197 -0.128123 0.795837
0.272877 -0.127548 0.795385
0.26077 -0.134984 0.781187
0.276346 -0.132085 0.793056
0.276657 -0.132266 0.794232
0.270459 -0.126292 0.792727
0.260847 -0.133114 0.782641
0.274409 -0.130341 0.790261
0.276672 -0.133024 0.793463
0.266036 -0.133975 0.790685
0.254925 -0.123347 0.780189
0.267431 -0.131737 0.794292
0.275215 -0.127836 0.793032
0.277471 -0.13358 0.794909
0.272952 -0.127431 0.795194
0.263467 -0.127985 0.798746
0.27632 -0.126323 0.799856
0.266189 -0.132152 0.791921
0.273599 -0.128843 0.792899
0.254499 -0.123526 0.784404
0.277524 -0.133953 0.794766
0.274075 -0.128269 0.796535
0.267781 -0.12623 0.797349
0.277145 -0.133704 0.794498
0.276026 -0.132873 0.792346
0.275129 -0.128852 0.792136
0.275755 -0.125884 0.798255
0.275124 -0.135098 0.791258
0.273587 -0.12534 0.795315
0.276775 -0.132679 0.794001
0.276203 -0.127002 0.796173
0.273158 -0.127766 0.796079
0.274511 -0.130806 0.790473
0.27501 -0.128444 0.796385
0.272243 -0.127347 0.799493
0.272296 -0.12631 0.795047
0.273041 -0.127357 0.795044
0.277132 -0.1301 0.795276
0.26656 -0.126909 0.796692
0.277558 -0.132114 0.794655
0.263369 -0.134434 0.783833
0.274469 -0.12884 0.796498
0.277016 -0.132072 0.79325
0.274822 -0.12923 0.796404
0.265375 -0.129537 0.792002
0.25704 -0.124111 0.780713
0.264483 -0.127498 0.791908
0.274369 -0.129075 0.790486
0.27406 -0.128062 0.79639
0.272611 -0.125951 0.796206
0.265413 -0.129569 0.792001
0.262437 -0.129067 0.798961
0.276305 -0.132904 0.792339
0.26985 -0.127676 0.79501
0.266554 -0.126915 0.796702
0.276612 -0.125167 0.797532
0.267595 -0.134076 0.793296
0.271059 -0.12786 0.792738
0.274139 -0.128261 0.791692
0.274314 -0.124758 0.792469
0.273042 -0.129424 0.791358
0.25472 -0.123184 0.779485
0.27537 -0.128687 0.791706
0.266836 -0.127816 0.795503
0.254828 -0.125664 0.77486
0.274914 -0.133068 0.790882
0.272033 -0.125914 0.795092
0.272557 -0.125453 0.795439
0.26167 -0.124729 0.789011
0.259945 -0.12402 0.78494
0.267143 -0.128707 0.796627
0.275594 -0.134294 0.791086
0.270797 -0.128255 0.79311
0.264596 -0.126648 0.792307
0.263863 -0.126448 0.796889
0.264508 -0.125583 0.793466
0.277828 -0.132997 0.794497
0.260823 -0.131023 0.783469
0.271223 -0.127233 0.793534
0.272103 -0.129745 0.793849
0.272067 -0.125875 0.795036
0.275125 -0.131708 0.796228
0.276482 -0.134401 0.792374
0.273778 -0.128907 0.796559
0.261747 -0.124956 0.789385
0.260055 -0.124904 0.786972
0.276413 -0.126824 0.795951
0.277217 -0.133877 0.794391
0.274298 -0.126574 0.795989
0.274464 -0.130264 0.790068
0.262546 -0.129126 0.798884
0.275247 -0.128279 0.796147
0.273849 -0.125104 0.792905
0.275863 -0.128386 0.790766
0.262121 -0.124513 0.788467
0.275321 -0.129551 0.79594
0.25357 -0.131578 0.779989
0.259602 -0.131905 0.781018
0.262114 -0.129227 0.798306
0.259765 -0.124145 0.785218
0.261745 -0.124753 0.789019
0.259239 -0.123454 0.783993
0.255496 -0.1262 0.776481
0.273878 -0.128201 0.796606
0.275403 -0.129493 0.795842
0.27711 -0.133867 0.794222
0.259634 -0.131901 0.781176
0.255535 -0.123244 0.783251
0.266977 -0.129801 0.796833
0.277603 -0.134304 0.794546
