VERSION .7
FIELDS x y z
SIZE 4 4 4
TYPE F F F
COUNT 1 1 1
WIDTH 1333
HEIGHT 1
VIEWPOINT 0 0 0 1 0 0 0
POINTS 1333
DATA ascii
-0.0155328 0.00606235 0.679651
-0.12701 0.0444521 1.03291
-0.558545 -0.148328 1.14825
-0.419955 -0.0604332 1.07659
-0.259738 -0.2507 0.968613
-0.328878 -0.438433 1.12514
-0.437658 -0.201882 1.02517
-0.721112 -0.229193 1.18045
-0.4183 -0.0544076 0.785006
-0.305103 -0.0924826 0.965376
-0.527761 -0.0527126 0.796366
-0.213521 -0.0688626 0.740719
-0.361671 -0.065543 0.870745
-0.482943 -0.0620291 0.849826
-0.473397 -0.0763524 0.841133
-0.17151 -0.0292559 1.00673
-0.165818 -0.0308598 0.933067
-0.570017 -0.183136 1.08186
-0.377238 -0.0546374 0.79812
-0.160631 -0.397094 1.06076
-0.494072 -0.0151566 0.786166
-0.105137 -0.00723544 0.790031
-0.879665 0.0915765 1.21479
0.0726116 -0.34097 0.900273
0.0651628 -0.333602 0.877137
-0.534996 -0.133911 1.09568
0.271915 0.189456 1.44613
0.163697 0.130174 1.03343
-0.310192 -0.158696 1.09561
-0.322916 -0.153364 1.0592
-0.118338 -0.127714 0.899167
-0.166238 -0.265943 1.07002
-0.338019 0.0441843 0.766037
-0.135885 -0.182446 1.0337
-0.110283 -0.196092 0.972587
-0.121098 -0.335227 1.07559
0.417139 0.180494 1.24025
-0.00170056 0.0598573 0.642897
-0.498702 -0.255357 1.32932
-0.683125 0.0699238 0.995315
-0.0806036 -0.286097 0.906628
0.0343253 0.0102148 0.70597
-0.344486 -0.0390154 0.805328
-0.373286 -0.0549009 0.804972
-0.399487 -0.0808521 0.929924
-0.198123 -0.420475 1.09719
-0.341647 -0.0536981 0.91821
-0.354635 -0.0998657 1.04426
-0.166061 -0.185573 1.04698
-0.73267 -0.191 1.21225
-0.709669 -0.210513 1.13869
-0.426602 -0.0382314 0.715247
-0.277077 -0.0513873 0.963539
-0.338519 -0.072602 1.09489
-0.412331 -0.0428443 0.808246
-0.78933 -0.163077 1.13556
-0.632259 -0.262201 1.13377
-0.637415 0.0443457 0.96096
-0.652579 0.157604 0.939927
-0.139341 0.124275 0.440325
-0.634226 0.161118 1.92857
0.362678 -0.0845188 1.32712
0.26836 -0.491176 1.2523
0.713609 -0.0407636 1.14518
0.5256 0.251227 0.914758
0.539784 -0.262954 1.53997
-0.285424 -0.0315131 0.986138
-0.375811 -0.058548 0.933021
-0.341667 -0.0538876 0.822781
-0.617277 -0.261385 1.12808
0.644397 -0.0503115 1.29311
0.0708445 0.0533942 0.741219
0.76646 -0.0520399 1.37517
-0.818329 -0.277342 1.2677
-0.479738 0.178042 0.799645
-0.166755 -0.0263111 0.868142
-0.771895 -0.272063 1.19948
-0.485893 -0.0294853 0.740802
0.0170094 0.0675817 0.670356
0.260656 -0.444661 1.35385
-0.298815 0.202991 0.867459
0.461473 0.10726 1.07659
0.852785 0.144953 2.1148
0.380668 0.222419 1.00351
-0.0989589 0.112751 0.859546
-0.602312 -0.360146 1.09344
-0.217329 -0.140168 0.936137
-0.83718 -0.178345 1.21672
-0.361028 -0.0341864 0.833486
0.383679 -0.427709 1.29605
-0.303371 0.189972 1.13082
-0.275379 -0.392485 1.00901
0.233551 -0.514251 1.61382
0.63445 -0.10552 1.20229
-0.00557772 0.157692 0.640128
0.320037 0.17163 1.2293
0.627645 -0.129056 1.19762
0.182941 0.215928 0.802437
-0.380829 0.185909 0.877999
-0.356675 0.170772 0.799216
-0.463129 0.0621438 1.4421
0.100968 0.00134811 0.734774
0.0954312 0.00378603 0.772299
0.584712 -0.0490326 1.22811
-0.0571818 0.170073 0.932041
0.0787309 0.177073 0.909203
-0.363205 0.193121 0.960544
-0.356431 0.169551 0.861375
-0.648808 -0.41307 1.1708
-0.655621 -0.163387 1.15845
-0.00766442 0.207302 0.670618
-0.013275 0.221407 0.711789
-0.0218469 0.184038 0.965121
0.117027 0.193448 0.791247
-0.500332 0.121965 0.815865
-0.357656 0.108012 0.878821
-0.256643 0.031652 1.02738
-0.655737 0.13984 0.94396
-0.438589 0.00153258 0.860182
-0.237831 -0.0172532 0.865996
0.798062 -0.0705026 1.33163
0.615455 -0.0491226 1.0332
-0.0924837 0.148161 0.818614
-0.168735 -0.0711339 1.02298
-0.607059 0.132942 0.899206
-0.658556 0.120678 0.970045
-0.234787 0.114016 0.909612
-0.761525 -0.241911 1.06845
0.495286 0.147936 1.38534
-0.543537 0.0374026 0.86942
-0.59211 -0.228352 1.17974
-0.4462 -0.114842 0.985821
0.0837717 0.0640626 0.768334
-0.0970744 0.199597 0.798467
-0.0761869 0.187876 0.818961
-0.352238 -0.119423 0.966045
-0.0888489 -0.184899 1.06152
0.0865951 -0.37472 1.14916
0.484187 -0.113106 1.44816
0.0385725 0.173483 0.891534
-0.477371 -0.0384179 0.709413
-0.49551 0.183417 0.824689
-0.250444 0.143343 0.924636
-0.501292 -0.0496808 0.887559
0.796491 0.250042 1.18647
-0.321081 -0.167092 0.869523
-0.443051 0.186165 0.830487
-0.369444 0.0989412 0.926542
-0.512386 -0.0319897 0.765172
-0.568152 -0.0488521 0.842555
-0.267948 0.107643 0.439679
-0.520866 -0.0326979 0.777562
0.24015 0.16161 0.607522
-0.64924 -0.185043 1.1259
-0.384788 0.100904 0.963362
-0.0135606 0.24018 0.77427
0.212108 0.132015 0.556727
0.480221 0.239194 0.815342
0.052968 -0.161374 0.449722
-0.0957108 0.193678 0.788443
-0.524419 0.0514777 0.843328
-0.105673 -0.0806619 0.452342
0.358435 0.229378 0.914254
-0.60688 -0.0587171 0.908916
-0.113802 0.217694 0.600972
-0.533887 0.192829 0.898881
0.727249 0.22685 1.09916
0.287331 0.133764 0.51706
0.16478 0.244233 0.70829
-0.772105 -0.245376 1.08229
-0.477105 0.000658412 0.936213
-0.10184 0.207315 0.829917
-0.658406 0.120475 0.969788
-0.364091 -0.176665 0.878858
0.732246 0.291049 1.07493
-0.40012 0.147315 0.982018
-0.376442 0.178312 0.910294
-0.649945 0.0841869 0.997408
-0.349352 -0.0542578 0.933111
-0.318423 -0.0358399 0.743763
-0.262436 0.235834 0.631126
-0.448475 0.16592 0.752465
0.631903 0.194293 0.940465
-0.442393 0.184778 0.827068
-0.639442 0.140924 0.914691
-0.386038 -0.0633499 0.78581
-0.380834 -0.0557392 0.82256
-0.413766 -0.067409 0.808849
-0.427715 -0.0314477 0.76714
-0.441795 -0.125272 0.944638
-0.518135 -0.0315101 0.76368
-0.58794 0.0460362 0.933515
-0.0999221 0.201638 0.814878
-0.512998 0.125141 0.834493
-0.0995132 0.205522 0.685346
-0.700068 -0.343511 1.0664
-0.448746 0.00047728 0.884754
-0.396219 0.119624 0.974158
0.0218586 0.17885 0.569992
-0.205055 0.183485 0.857288
-0.261308 0.169914 0.779954
-0.283907 0.19013 0.825736
-0.654173 0.119617 0.959545
0.327551 0.199753 0.853533
-0.36745 0.175512 0.866024
0.296931 0.21014 0.728327
-0.539486 -0.0532778 0.813338
-0.815598 -0.175062 1.19027
-0.305767 -0.0203684 0.752366
-0.0781701 0.218578 0.690669
-0.00982857 0.210302 0.681969
-0.426243 0.17884 0.797708
-0.356493 -0.0681058 0.812331
-0.390157 0.226758 0.647805
-0.217044 0.193782 0.593272
-0.508708 -0.0837951 0.920687
-0.317465 -0.0493313 0.772401
-0.522847 -0.0633706 0.910864
-0.517742 -0.0817293 0.917053
-0.347698 -0.0558581 0.872281
-0.506677 0.187312 0.842288
-0.476256 0.174972 0.79288
0.265625 0.237274 0.65804
-0.42113 -0.0554833 0.783539
-0.364099 0.0644953 0.891571
-0.57438 0.0479346 0.912622
-0.0774231 0.0834411 0.694562
-0.776765 -0.167272 1.1345
-0.692927 -0.339036 1.05386
-0.579271 0.0576488 0.924878
-0.383846 0.142173 0.94548
-0.377027 -0.0544292 0.818907
-0.544449 -0.28501 0.988437
-0.455315 -0.0889039 0.950737
-0.412406 -0.000305388 0.814118
-0.751273 -0.236461 1.22744
-0.494223 -0.0164496 0.793851
-0.445912 -0.0318038 0.802691
-0.582589 -0.269352 0.958032
-0.0857805 0.239746 0.754104
-0.222259 0.198992 0.808586
-0.103016 0.199229 0.573128
0.148468 0.219674 0.643295
0.182121 0.207667 0.801971
-0.0135815 0.250212 0.8113
0.109404 0.182084 0.761999
0.101913 0.169972 0.714092
-0.613643 0.142996 0.897072
-0.340343 -0.0525915 0.823824
-0.366089 -0.0650096 0.885475
-0.349073 -0.0552202 0.875242
-0.507091 -0.0173816 0.813905
-0.629498 -0.0176696 0.992229
-0.423977 -0.0569835 0.88319
-0.429008 -0.0690642 0.818315
-0.326019 0.151318 0.79701
-0.34276 -0.0500444 0.748308
0.338707 0.188428 0.910111
0.136297 0.232081 1.05843
-0.312646 -0.149245 0.765725
-0.442697 -0.0470405 0.794439
0.324674 0.227489 0.796676
-0.281106 0.178569 0.8331
-0.522431 0.124974 0.846769
0.638534 0.179445 1.01305
-0.116846 -0.0381073 0.409983
-0.0230938 0.160432 0.841287
-0.24702 -0.0858159 0.691322
-0.015744 0.0894266 0.591847
-0.679945 -0.215208 1.11313
-0.349555 -0.0388928 0.801247
-0.516096 -0.0515618 0.77914
-0.243055 0.217052 0.654992
-0.395641 0.144635 0.972072
-0.444696 0.184062 0.831487
-0.486231 0.0357835 0.773791
-0.53113 0.036177 0.797402
0.0227058 0.183495 0.585101
0.655017 0.365354 1.00722
-0.0132897 0.233093 0.76235
-0.0981415 0.198763 0.80668
0.144437 0.212036 0.627829
0.217779 0.0916136 0.684427
0.00394841 0.0570936 0.542468
-0.576003 -0.148476 0.910434
-0.662939 0.145855 1.00972
-0.473347 -0.0568746 0.820163
-0.430952 -0.0490869 0.795687
-0.507714 0.117866 0.82364
-0.251601 -0.0758449 0.744673
0.022399 0.114874 0.617382
-0.720348 -0.234064 1.1312
-0.254759 -0.0736614 0.787922
0.233904 0.0739446 0.728073
-0.642311 -0.0401184 0.960767
-0.584326 -0.129532 1.07872
-0.477795 -0.0935686 1.08598
-0.336037 -0.0690859 0.812689
-0.396455 -0.0669067 0.939413
-0.690423 -0.151877 1.01434
-0.271873 0.181948 0.797209
-0.00817673 0.0493672 0.521082
-0.257682 0.143337 0.940624
-0.160629 0.146299 0.996275
0.482929 0.335256 1.18109
-0.0844665 0.235806 0.740529
0.0505148 0.243669 0.912736
-0.102725 0.208671 0.841213
-0.357593 0.169459 0.848156
0.273482 0.192008 0.673267
-0.356463 -0.0558627 0.864962
-0.401864 -0.0724561 0.952642
-0.204051 -0.060128 0.636978
-0.326681 -0.049586 0.709924
-0.0455807 0.014293 0.465373
-0.537944 0.0973199 0.859743
-0.183904 -0.124844 0.680044
-0.114708 0.155158 0.852686
-0.515508 -0.0140625 0.806239
-0.452439 -0.0115772 0.731725
-0.347101 -0.0140494 0.762892
-0.501486 -0.0553054 0.902506
-0.29421 -0.152722 0.788659
-0.494014 0.116854 0.798755
-0.128811 0.113195 0.502355
-0.26859 0.180167 0.789378
-0.359156 0.168516 0.850744
-0.328857 -0.0678248 0.754678
-0.358207 0.10537 0.891869
-0.577543 -0.0893233 1.02453
-0.374258 -0.0685449 0.820814
-0.340125 -0.0353496 0.768116
-0.424429 0.000114809 0.836745
-0.443845 -0.0371576 0.746728
-0.349612 0.125671 0.86672
-0.304412 0.106376 0.757132
-0.581989 0.105459 0.927039
-0.471636 0.107297 0.761944
-0.0880029 0.173972 0.722791
0.0187754 0.0971773 0.545498
0.106331 0.175387 0.751277
0.125151 0.132481 0.879509
-0.372345 0.174516 0.879887
-0.0104549 0.179927 0.609497
-0.481644 0.1714 0.809602
-0.269068 0.154817 0.986583
-0.355881 -0.107276 0.778374
-0.531037 0.129925 0.864086
-0.609668 -0.261541 1.11709
-0.00485667 0.0664992 0.558858
0.315927 0.203901 0.809173
-0.186445 0.055409 0.568394
-0.0134157 0.0777259 0.704018
-0.205399 -0.0884174 0.728871
0.0737069 0.0356782 0.230486
0.114528 0.192732 0.795041
0.0296673 0.146438 0.749182
0.154383 0.142029 1.03569
-0.0486828 -0.0962098 0.352707
0.322971 0.208182 0.825994
-0.281755 0.159707 1.02705
-0.361906 0.135731 0.890902
0.577013 0.12607 0.843799
-0.597943 0.146128 0.884223
-0.559391 -0.0133481 0.886837
-0.387015 -0.0610587 0.961419
-0.338962 0.158332 0.825074
0.475983 0.141902 0.741829
-0.084186 0.0734547 0.303143
-0.387743 -0.0826373 0.869909
-0.745836 -0.262836 1.15643
0.621179 0.245806 0.909259
-0.0840114 0.0901272 0.755888
-0.509387 -0.199135 1.02386
-0.349938 -0.179858 0.938654
0.384209 0.292064 0.903886
-0.385862 -0.196501 0.943475
-0.43989 0.18421 0.823629
-0.386792 0.188513 0.889322
-0.0505335 -0.0341819 0.187461
-0.620223 -0.272646 0.975148
-0.0189649 -0.0630832 0.216831
-0.306435 -0.0556204 0.863331
-0.155438 0.0780364 0.606612
-0.0115384 0.0675839 0.614065
0.172137 0.203328 0.761144
-0.269476 0.244125 0.648928
-0.0126702 0.0712333 0.648472
-0.748833 -0.178056 1.16539
0.539361 0.151905 0.860238
0.246919 0.117878 0.697523
0.297271 0.171957 0.794839
-0.435685 -0.0349892 0.759302
-0.512076 -0.102146 1.08246
-0.446382 -0.114886 0.984024
-0.424897 -0.0452529 0.830043
0.00304873 -0.047646 0.152461
-0.386014 -0.0779083 0.897258
0.216459 -0.0564511 0.679929
-0.475255 -0.124069 1.0387
-0.642279 0.143016 0.919347
-0.646159 0.158925 0.955941
-0.729761 -0.216433 1.16809
-0.559407 -0.1728 1.09483
0.128248 0.21374 0.877305
-0.707856 -0.184869 1.17032
-0.768282 -0.185074 1.1935
-0.0856782 0.0744207 0.30748
-0.422634 -0.0310276 0.763382
-0.548873 -0.215288 1.10348
-0.598853 -0.15118 1.10611
0.212505 -0.0544346 0.667924
-0.347779 -0.180206 0.926599
-0.463174 -0.236419 1.04568
-0.770727 -0.183687 1.19329
0.0395387 0.138512 0.811819
-0.294237 -0.0755804 0.920138
-0.0723236 0.0652177 0.706576
-0.446573 -0.000487671 0.879926
-0.320342 -0.0550735 0.858988
-0.729862 0.133302 1.07114
-0.519874 -0.0819432 0.929088
0.319432 0.135227 0.975851
0.377821 0.24156 0.964308
-0.413868 -0.199071 0.97032
0.0926396 0.155727 0.781483
0.187043 0.112077 0.831199
-0.46475 -0.123389 1.01104
-0.721524 -0.0162926 1.13109
-0.287053 -0.0633824 0.778159
-0.598238 -0.153444 1.09916
-0.771802 -0.271045 1.21033
-0.0883148 0.154176 0.836867
-0.252721 -0.0495999 0.842084
-0.653744 -0.164426 1.15787
-0.0165944 -0.0222586 0.110923
-0.364859 -0.0606782 0.780029
-0.0846546 0.0402712 0.726514
-0.363754 -0.166867 0.903252
0.320204 0.133859 0.967863
-0.61415 -0.391552 1.11075
-0.592083 0.12917 0.879444
0.0031736 0.0748749 0.659763
-0.610601 -0.259312 1.12072
0.582314 -0.0639982 1.1898
-0.759557 -0.181196 1.21111
-0.119 0.171245 0.938538
-0.408241 -0.198868 0.953305
-0.437218 -0.0435556 0.785557
-0.750844 -0.263906 1.1647
-0.493625 -0.0322084 0.729068
-0.620921 0.22555 1.02902
-0.326721 -0.0251155 0.614882
0.314817 0.24632 0.734149
-0.21803 0.195448 0.821261
-0.0227291 0.0664373 0.686712
-0.364435 0.170205 0.815249
-0.600406 -0.234701 1.20012
-0.326113 -0.0628414 0.788074
-0.206284 0.0323848 0.844089
-0.436453 -0.0334053 0.751505
-0.287956 0.194523 0.841491
0.301492 0.212349 0.739608
-0.459005 -0.144947 1.0036
-0.143846 0.129209 0.884195
-0.504251 -0.0789793 0.900545
-0.354573 -0.0392506 0.819226
0.521289 0.287027 0.818335
-0.0574587 -0.00395915 0.514713
-0.346899 0.0607015 0.845252
0.515387 0.119513 1.20326
-0.830166 -0.47611 1.23884
-0.377609 0.140523 0.929937
-0.341797 -0.178101 0.929522
-0.519604 -0.0487854 0.777389
-0.429488 0.000185883 0.845854
0.372741 0.156017 0.710047
-0.343369 -0.0434387 0.839717
-0.689785 -0.240935 1.0824
-0.659106 -0.337675 1.18466
-0.391599 -0.0416968 0.944869
-0.365029 0.222348 0.631656
-0.451635 -0.0703433 0.854353
0.0285443 0.155339 0.564557
-0.11997 0.17179 0.93774
-0.12408 0.11727 0.804347
-0.373431 -0.0532145 0.784218
-0.0113694 0.0696916 0.61592
-0.744351 -0.230505 1.16424
0.302537 0.205781 0.753391
-0.454084 0.00217406 0.897586
-0.00625114 0.155753 0.816704
-0.0146932 0.108654 0.662775
-0.00233922 0.159087 0.823534
0.0292783 0.159385 0.824813
-0.56836 0.137979 0.920625
-0.487532 -0.310348 1.08637
0.4897 -0.299077 0.912723
-0.114679 0.159755 0.876493
-0.498902 -0.149369 1.04289
-0.645894 -0.27035 1.14709
-0.542626 -0.137433 1.10545
-0.384958 -0.201431 0.938553
-0.610959 -0.364403 1.10866
-0.523495 0.128588 0.852096
-0.485282 -0.0804201 0.882654
0.515808 0.120717 1.20676
-0.348121 0.164717 0.782543
0.330276 0.258011 0.767468
-0.437985 -0.0551266 0.821622
-0.0844855 0.0912996 0.753819
-0.508932 -0.0976866 1.05636
-0.00546017 0.155199 0.805994
0.632798 0.161976 1.06287
-0.64642 -0.164193 1.14594
-0.629549 0.0777354 0.960313
0.21411 0.137451 0.846938
-0.389954 -0.0554975 0.81926
-0.254548 0.158718 0.959775
0.592122 -0.041197 1.06044
-0.368121 0.136932 0.906484
-0.75678 -0.180728 1.20588
0.55173 0.236967 1.02177
-0.399654 -0.0789948 0.864732
0.527256 0.122839 1.23169
0.346163 0.149892 1.04246
-0.415288 0.113056 1.03309
-0.341506 -0.0482881 0.885547
0.506125 0.222069 0.928311
-0.253019 0.155798 0.944426
-0.639443 0.141156 0.914359
-0.356749 0.168126 0.800551
-0.320704 0.045904 1.00055
0.195856 0.132137 0.496496
-0.421497 -0.0687095 0.810346
-0.555703 0.0452791 0.884262
-0.420852 0.12289 0.78374
-0.525705 -0.136127 1.06327
-0.317974 -0.0889296 0.936495
-0.284004 -0.0290349 0.701898
-0.407814 -0.0460727 0.756576
-0.731111 -0.212614 1.21509
0.00279479 -0.00758126 0.322526
-0.454435 -0.117744 0.99868
-0.0714067 0.0632999 0.700527
-0.364615 0.222402 0.631441
0.104785 0.170176 0.856363
-0.443856 -0.0340767 0.764225
-0.704116 0.102045 1.06446
0.0422765 -0.0355535 0.34789
-0.0980226 0.163774 0.884542
0.028059 0.219027 0.696141
0.318667 0.177886 0.501116
0.215858 0.148396 0.540228
-0.649157 -0.195952 1.18842
-0.126218 0.172293 0.951062
-0.404244 -0.364379 0.970488
-0.241569 -0.302566 0.838901
-0.410492 -0.354588 0.984857
-0.71493 -0.171174 1.1396
-0.353075 -0.0653198 0.850398
-0.425462 0.130839 1.16314
-0.0275465 0.302925 1.11803
0.495363 0.116498 1.15695
-0.258887 0.160922 0.97488
-0.251477 -0.0307962 0.844199
-0.0740472 0.0520932 0.687741
-0.407061 -0.204551 0.992953
-0.00623491 0.159058 0.833955
0.0301678 0.165396 0.601167
0.0321983 0.161989 0.832612
-0.500967 -0.0343421 0.750332
-0.0887912 0.145298 0.796482
-0.407518 -0.0483439 0.786039
-0.641661 -0.384586 1.16167
-0.461343 -0.0405131 0.802217
-0.204731 -0.0957816 0.728168
-0.146256 0.130291 0.904862
-0.585805 -0.203474 1.16544
-0.564288 -0.126757 1.04989
0.0608048 0.0550593 0.624544
-0.566152 0.0407808 0.885485
-0.731913 -0.180282 1.13695
-0.476956 -0.149489 1.04399
-0.310342 -0.0779368 0.923143
-0.368579 0.241686 1.08094
0.443064 0.132091 1.25387
-0.226017 -0.250897 0.846126
0.617384 -0.111102 1.17473
-0.462108 -0.352382 1.03031
-0.524619 -0.0508267 0.789823
-0.0252562 0.0876918 0.702843
0.356499 0.154438 1.06467
-0.0128032 0.0651317 0.676309
0.255217 0.298936 1.11584
0.393344 0.111995 1.12068
0.228125 0.146864 0.90353
-0.781123 -0.449868 1.17571
0.596592 -0.108948 1.13207
-0.235635 0.145746 0.886554
0.599563 -0.124655 1.07406
-0.749722 -0.231272 1.21871
-0.0927463 0.190284 0.632253
-0.00369796 0.174851 0.895093
-0.147661 -0.0220397 0.528709
0.407142 -0.379756 1.13455
-0.234603 0.209836 0.633001
0.38161 0.177118 0.684864
0.551239 0.200059 1.10656
0.602363 -0.110899 1.14077
-0.0648155 0.021821 0.606377
0.251952 0.157388 1.04208
-0.342521 0.0602411 0.83495
-0.147872 -0.0987222 0.615224
-0.605325 -0.194602 1.14481
0.0657679 0.0418495 0.660298
-0.823307 -0.242825 1.16918
0.719355 -0.0452146 1.15249
-0.629349 -0.16312 1.13779
0.220807 0.140915 0.890245
-0.0675996 0.0604455 0.667496
0.0770002 0.0597464 0.717604
-0.229763 -0.0291344 0.769568
-0.407499 -0.0325874 0.705466
-0.783239 -0.275743 1.2183
0.34239 0.143264 1.04191
-0.082049 -0.0397832 0.482457
-0.464575 -0.0379247 0.814774
-0.828947 -0.289883 1.28571
0.585079 -0.0730603 1.09665
-0.0749775 0.082467 0.676486
0.745653 -0.0470522 1.19453
0.496971 0.103247 1.00878
-0.798469 -0.334593 1.22325
0.474472 0.281592 1.24061
-0.00332861 0.157292 0.825284
-0.640536 -0.383476 1.1606
-0.123707 0.247445 0.755082
-0.449279 -0.2873 1.01221
-0.0769735 0.0378703 0.654934
0.633516 -0.0441053 1.13563
0.599724 -0.100492 1.13882
0.547272 -0.0735808 1.01668
-0.474733 -0.0770359 0.843944
-0.414904 -0.0273721 0.622967
0.352291 0.141389 1.10692
0.477122 -0.0434663 1.00544
-0.0191613 0.0601287 0.630919
-0.34173 -0.383038 1.02037
0.380487 0.0944722 1.05212
-0.598561 -0.181495 1.1689
0.52418 -0.0620261 1.0719
0.0162477 0.0590639 0.59846
-0.509768 -0.143307 1.0278
-0.855731 -0.271712 1.19895
-0.503499 -0.131132 1.10165
-0.260456 0.140735 0.943932
-0.691893 -0.193685 1.19157
-0.0158573 0.127753 0.670155
-0.495671 0.177905 0.831601
-0.629066 -0.27347 0.976906
0.489929 0.120396 1.33918
-0.353341 -0.118614 0.966994
0.415087 0.121992 0.995773
-0.0303199 0.18172 0.942276
-0.49609 -0.438124 1.1453
-0.663538 -0.0551813 1.11702
0.000485872 -0.0304364 0.129336
-0.201949 0.0328866 0.825215
-0.0632566 0.0696986 0.57085
-0.63515 -0.186587 1.17005
0.0656197 0.0410025 0.655783
0.103045 0.168362 0.708893
0.568266 -0.0484042 1.19479
-0.370395 -0.0581018 0.891713
-0.3002 0.20073 0.871393
-0.39022 0.118041 0.95727
-0.294746 -0.0870572 0.919621
-0.740907 -0.229496 1.19696
0.00038101 0.142432 0.73767
-0.338718 -0.100547 0.944903
0.115588 0.192923 0.963108
-0.40089 -0.318914 1.05924
-0.447973 -0.395596 1.03524
-0.133571 -0.0408226 0.46398
-0.0201199 0.0596336 0.620653
-0.081225 0.0747123 0.780274
-0.310438 -0.0758245 0.923403
0.610914 -0.113848 1.17981
-0.385 -0.049699 0.973202
0.530327 0.199756 1.0475
0.396763 0.253644 1.0124
-0.0772391 0.178702 0.715978
0.0333117 0.139883 0.74188
0.53989 -0.0604736 1.1099
-0.14985 0.136778 0.926187
0.629004 -0.0840938 1.16985
-0.391762 -0.0606647 0.977309
-0.0795215 0.0688768 0.769215
0.0274333 0.0198395 0.555776
0.449722 0.218823 0.773789
0.0806823 0.138468 0.613805
0.624421 0.232799 1.23487
-0.079713 0.0699196 0.775013
-0.457526 -0.0370499 0.798434
-0.0268438 0.180106 0.93885
-0.593297 -0.191614 1.12214
0.00608521 0.066674 0.64564
0.261399 0.166199 1.03851
-0.564777 -0.0152682 0.894373
-0.013738 0.0797642 0.647721
0.263653 0.140691 0.997784
0.023274 0.00549721 0.468243
0.0583453 0.268582 1.01851
0.606056 -0.0838472 1.12613
-0.312021 -0.0386435 0.764433
0.724006 -0.0608638 1.18222
-0.271571 -0.0686825 0.807837
0.0375344 0.192988 0.969393
0.107567 0.185457 0.792921
-0.684096 -0.17254 1.21282
-0.053729 -0.171819 0.616632
0.0419115 -0.189842 0.558432
0.0635763 0.0478264 0.672088
-0.275767 -0.038575 0.984407
-0.466726 -0.232 1.04245
-0.474182 -0.221466 1.09095
-0.278822 0.249447 0.876344
0.264358 0.140277 1.0185
-0.188915 -0.138799 0.802848
0.0587574 0.0402816 0.676041
-0.6953 -0.149552 1.25926
-0.322424 0.0791781 1.00588
-0.119203 -0.00835987 0.653662
-0.148846 0.133185 0.914584
0.698172 -0.0476755 1.25183
-0.823647 -0.199723 1.2918
-0.544388 -0.213782 1.09105
-0.358469 -0.121202 0.98122
-0.478325 -0.188466 0.964277
0.129916 0.0980826 0.778584
0.378331 -0.351554 1.05367
0.147387 0.217514 0.636864
0.578924 -0.049513 1.21711
0.595955 -0.110471 1.15092
-0.302683 -0.0857397 0.893605
-0.397158 -0.0767563 0.904072
0.495439 0.10153 1.00481
0.419994 0.240291 1.1189
-0.498669 0.180277 0.843161
-0.658206 0.145774 0.971672
0.0988968 0.167571 0.764021
-0.742872 -0.210624 1.27709
0.0391991 0.175911 0.900485
-0.511423 -0.263852 1.15737
-0.831543 -0.241051 1.18915
-0.0786657 0.0772232 0.804046
-0.68412 -0.394622 1.20043
-0.443765 -0.0711357 0.791058
-0.0528208 0.0209387 0.635342
-0.590626 -0.135942 1.08783
-0.130309 0.176674 0.96904
-0.830948 -0.175778 1.19297
-0.707961 -0.306551 1.09859
-0.811265 -0.393903 1.22103
-0.616773 -0.261566 1.12995
-0.00912313 0.203896 0.657858
0.109714 0.160561 0.872729
0.593041 -0.101185 1.12815
-0.0769189 0.0348528 0.670512
0.151296 0.111607 0.901378
-0.239313 -0.0387131 0.617661
0.0368291 0.176531 0.673821
-0.723274 -0.177622 1.14212
0.233082 0.148435 0.927635
0.104035 0.15115 0.807675
-0.469982 0.279802 0.73524
0.0334863 0.149391 0.945394
-0.121797 -0.00894808 0.690747
0.112133 0.185485 0.926668
0.37305 0.15212 1.17652
0.0752044 0.0334816 0.248181
-0.320799 -0.429223 1.09933
0.34047 0.145864 1.02237
0.271859 0.144424 1.04086
0.282376 0.192888 0.704562
0.114006 0.198636 0.844051
0.509596 0.104653 1.03364
0.541196 -0.0961893 1.03029
-0.215678 0.0387436 0.889833
0.602408 -0.102664 1.14493
-0.0194369 0.103943 0.665714
-0.488831 -0.374967 1.09288
-0.0657898 0.147899 1.00623
0.322967 0.201263 0.833013
0.235522 0.178804 1.06328
-0.269731 -0.038177 0.966196
-0.644192 0.0945853 0.978888
-0.759791 -0.397399 1.18251
0.265634 0.156914 1.16305
0.459059 0.202455 0.842987
0.59405 -0.0661192 1.21951
-0.737243 -0.19442 1.28104
0.689951 0.252472 1.38807
0.0426933 0.153041 0.791909
0.408182 -0.325997 1.10403
0.0921465 0.0303495 0.614644
0.143126 0.149753 1.03098
-0.529808 -0.157403 1.03425
-0.795036 -0.201462 1.24901
-0.0275288 -0.0480313 0.22941
0.0445879 0.185297 0.980992
0.331553 -0.0535636 0.973102
-0.0583938 0.130588 0.888871
0.01341 0.240573 0.653072
-0.507169 -0.225366 1.16287
0.377616 0.152516 1.182
-0.47178 -0.0128817 0.751369
-0.123504 -0.00249626 0.697305
-0.613257 -0.171808 1.12374
0.655563 -0.0622356 1.15297
0.291674 0.157268 1.11975
-0.227218 0.0306081 0.913333
0.285689 -0.072114 0.89286
-0.471501 -0.0129515 0.746394
-0.664843 -0.19043 1.15249
-0.0762257 0.0537576 0.696715
-0.470521 -0.218287 1.08275
-0.176834 0.159029 0.75043
-0.0580287 -0.00866114 0.446035
0.436479 -0.405161 1.20635
-0.481097 -0.224215 1.10761
-0.317333 0.286128 1.00552
-0.294642 -0.397694 1.0847
0.399672 -0.370764 1.10587
-0.114762 0.164798 0.903517
0.52599 0.22567 0.981052
0.081972 0.0059587 0.687586
-0.358558 -0.0563769 0.893585
-0.30326 -0.311397 0.912491
-0.629876 -0.15912 1.11812
-0.341246 -0.287644 1.02914
-0.11226 -0.00394019 0.714718
-0.0698963 0.0497022 0.652152
0.121406 0.126993 0.870342
-0.834256 -0.244952 1.18458
-0.49769 -0.2577 1.12893
-0.190297 -0.0524161 0.617747
-0.501888 -0.0343705 0.753036
-0.341277 -0.101753 0.986524
-0.250613 0.120781 0.959358
-0.29157 0.173077 0.834693
-0.346909 -0.299616 1.04682
0.453566 0.112509 1.24458
-0.661136 -0.286054 1.02916
-0.473622 -0.0400743 0.802266
0.395122 -0.36773 1.101
0.277415 0.14861 1.06494
-0.224346 0.0321708 0.904346
-0.531532 -0.0517609 0.800055
-0.315507 -0.352914 1.08578
-0.0308345 -0.0653429 0.258224
-0.332548 -0.101773 0.860998
-0.0206893 0.16612 0.875493
-0.284884 -0.0785439 0.926604
-0.10743 -0.00354892 0.687592
0.172517 0.137822 1.08748
0.0462332 0.157444 0.892104
0.576989 -0.0678835 1.1898
-0.331097 0.176033 0.968368
0.469706 0.206934 0.862321
0.649344 -0.0470883 1.18869
-0.220247 -0.279007 0.81426
0.383896 -0.327007 1.11303
-0.459857 -0.351508 1.02945
-0.0779833 0.0548964 0.711994
-0.0167993 0.0983956 0.620699
-0.0672221 -0.00958506 0.518136
-0.677644 0.0735621 1.02831
-0.144206 -0.273717 0.812326
-0.21881 -0.242181 0.817056
0.400574 0.132063 1.20161
-0.423779 -0.322548 0.947605
0.656838 -0.0825633 1.23122
-0.541034 -0.32473 0.947384
0.558471 -0.0632286 1.15097
-0.0572837 0.0232477 0.686066
-0.631143 -0.139569 1.12252
0.0368966 0.19712 0.989141
-0.0276306 0.0720526 0.672993
0.37529 -0.379955 1.14249
-0.518372 -0.331013 1.15786
0.145343 0.152481 1.04855
0.628183 -0.0515126 1.21518
0.0779556 0.0610572 0.719028
0.380697 -0.0603915 1.10417
-0.0285873 0.0739107 0.690649
0.400217 -0.22397 1.16436
-0.259481 -0.249728 0.972164
0.0328787 0.0281503 0.663124
0.0797206 0.00455557 0.668039
0.00679462 0.0727755 0.683833
-0.678609 -0.208602 1.28689
0.512859 0.117168 1.19186
-0.158937 -0.301576 0.886296
0.383712 -0.06124 1.11264
0.0110098 -0.00266326 0.469851
0.254937 0.156072 1.14233
-0.354396 -0.0896914 1.05088
0.0487147 0.185784 0.951024
0.0282648 0.00698998 0.568863
-0.630535 0.139134 0.931964
-0.366809 0.105117 1.09884
-0.317492 -0.355877 1.09354
0.347468 0.140989 1.09537
-0.290087 -0.26697 1.00914
-0.650083 -0.0527519 0.95519
-0.552081 0.0367708 0.789379
0.118639 0.195503 0.965041
-0.0666559 -0.00466496 0.614399
0.0519331 0.0355445 0.594043
0.0351815 0.0242883 0.642287
0.154423 0.139751 1.01833
0.38461 0.166706 1.22688
0.485473 0.141767 1.36809
-0.659121 0.152369 0.946046
-0.347376 -0.101387 1.07341
0.0306155 0.125727 0.850297
0.343102 0.138133 1.07432
0.0790595 0.0100594 0.688239
-0.536844 -0.27259 1.20032
-0.517088 -0.328941 1.15465
-0.0131225 0.0690425 0.644372
0.234861 0.0453454 0.541792
-0.0224601 0.0749334 0.629055
-0.579274 0.124779 0.869246
-0.105081 0.0689647 0.850264
0.00245754 0.0603667 0.550812
-0.129626 -0.00831951 0.719351
0.266253 0.164149 1.20009
-0.196348 -0.116895 0.791296
-0.564411 -0.194589 1.11903
-0.276905 -0.391239 1.0176
-0.0495906 0.0202579 0.626002
0.0330598 0.137441 0.909759
-0.446834 -0.0747642 1.19847
-0.209621 -0.0533057 0.647547
-0.501421 0.184877 0.832715
-0.447892 0.15984 0.748223
-0.821065 -0.242183 1.16765
-0.24308 0.129277 0.923156
-0.281395 -0.0372641 1.00832
-0.282474 -0.111763 0.998397
-0.35914 -0.0369417 0.76277
0.167581 0.154913 1.10253
-0.433458 -0.044795 0.802972
0.103856 0.193696 0.970169
0.265009 0.0626769 1.1247
-0.663486 -0.25872 1.32359
-0.597467 -0.354482 1.06346
0.0830877 0.00538546 0.699121
0.484655 0.143864 1.3649
-0.401503 -0.0377652 0.784433
-0.848879 -0.230702 1.33076
-0.249365 0.165798 0.740582
-0.275909 -0.0800765 0.903211
-0.274181 -0.260245 1.02015
0.392562 -0.400353 1.19706
0.0326566 0.0289899 0.662937
-0.0625649 0.0262858 0.642674
-0.321441 -0.277559 0.970536
-0.0266806 0.168554 1.00613
-0.583297 -0.355675 1.04912
0.276414 0.173412 1.08219
-0.139725 -0.00863005 0.776794
-0.0750747 0.030063 0.752467
-0.238378 0.12959 0.898033
-0.253303 -0.323987 0.936232
-0.469894 -0.358711 1.05098
-0.271923 -0.169866 0.968064
-0.242287 0.216336 0.650763
-0.299694 -0.0914992 1.01184
0.518506 -0.318633 1.00907
-0.82317 -0.398294 1.2384
0.543382 0.205368 1.07612
-0.349254 -0.0899446 0.897005
0.105072 0.152874 0.816602
0.435995 -0.363384 1.22792
-0.0377824 0.0156605 0.648138
0.577127 0.143348 1.55739
-0.264625 0.177469 0.773796
0.260129 0.156415 1.1528
0.29374 -0.0699292 1.07012
-0.257994 0.031744 1.02638
-0.407251 0.147816 0.688702
-0.363692 0.049023 1.13259
0.0415383 0.221733 0.806643
0.46912 -0.392306 1.3228
0.281686 0.222201 0.656294
0.0818398 0.139536 0.59822
-0.135603 -0.0040595 0.801479
0.490549 0.0792303 1.23775
0.167273 0.133214 1.05262
-0.28409 -0.0999869 0.993541
0.0213431 0.0249104 0.644358
0.161743 0.142306 1.06405
0.500652 0.0800448 1.26239
-0.307329 0.20752 0.88907
-0.640326 -0.369307 1.12315
0.149757 0.1319 0.985818
-0.22949 -0.14488 0.882452
-0.622207 -0.37159 1.09424
0.483805 -0.44609 1.33055
-0.0257545 -0.0162158 0.151029
0.00576021 -0.0252948 0.155611
-0.714455 -0.222968 1.1731
-0.615475 -0.212597 1.2174
0.0180434 0.0113931 0.596189
-0.299269 -0.37974 1.10532
0.202458 0.156182 1.22893
-0.342664 -0.0739869 1.10747
-0.286915 -0.112495 1.00175
0.500017 0.115196 1.34324
0.660451 -0.0444999 1.1844
0.139421 -0.309816 0.96812
0.140488 0.127074 0.952897
-0.236715 0.128191 0.889749
-0.0726054 0.0288574 0.751894
0.343075 0.0516268 1.2699
0.462961 -0.386391 1.3023
-0.337998 -0.0995553 1.05467
-0.321189 -0.269185 0.970566
-0.0649059 0.0245709 0.656472
0.083812 0.0681386 0.781172
-0.291348 -0.268081 1.07008
0.438638 -0.366069 1.24268
-0.745882 -0.231061 1.20946
0.347993 0.0521716 1.28203
-0.216485 -0.137678 0.787829
-0.517733 0.18524 0.866777
0.578566 -0.116762 1.10826
0.533783 0.0842326 1.34544
-0.295225 -0.255093 1.03116
0.586403 -0.0485465 1.18004
-0.0591337 -0.111013 0.425908
-0.393835 -0.0509736 1.00139
0.463403 -0.227837 1.33326
-0.0794899 -0.22201 0.705473
-0.320985 -0.0948943 0.933394
0.837761 0.21726 1.4106
0.601364 -0.110449 1.16152
0.223211 -0.0853397 1.00297
-0.0194385 0.155169 0.813993
-0.369249 -0.123805 1.0058
-0.136947 -0.0237794 0.803334
0.0220544 0.0273701 0.749551
0.520996 -0.433334 1.45847
-0.799974 -0.372287 1.31623
-0.0247509 0.189368 0.994035
0.196568 0.154295 1.20762
-0.0725062 -0.146045 0.495749
-0.347255 -0.0545146 0.928877
-0.214828 -0.154159 0.905636
-0.109796 -0.0189475 0.681412
-0.118983 -0.054522 0.720565
-0.0754539 0.0253613 0.751891
-0.319307 -0.277672 1.14002
0.0200949 0.0105056 0.642073
-0.535096 0.127556 0.785715
0.262169 -0.382367 1.14421
-0.681968 0.0459001 1.01962
-0.326618 -0.291761 1.13418
-0.00293898 0.0643354 0.321239
0.437386 -0.0667712 1.26601
-0.0582096 0.131274 0.884418
0.264661 0.157606 1.16079
-0.277107 -0.280079 1.02743
-0.340911 -0.318364 1.17874
-0.0584849 0.024853 0.690031
-0.0963002 -0.00699416 0.691846
-0.112848 -0.256368 0.77685
-0.3668 0.174779 0.82352
0.42347 0.324646 0.980691
-0.400959 -0.0561443 0.778038
-0.255508 0.228758 0.685715
-0.30525 -0.078208 1.04562
-0.0732451 -0.2041 0.652892
0.439288 -0.0674144 1.2731
-0.826157 -0.302168 1.27107
0.102423 -0.123542 0.742296
-0.137966 -0.0632447 0.755154
0.503561 -0.244433 1.44549
0.127035 0.0578064 0.406953
0.0150751 0.0508963 0.512067
0.300628 0.162179 1.1394
0.0208005 0.0257001 0.766898
0.0173331 -0.0031708 0.607448
-0.124075 -0.00822985 0.695
0.105813 -0.074921 0.775091
-0.331251 -0.376255 1.21555
-0.308462 -0.0914382 1.08111
-0.601508 -0.233828 1.19783
0.556058 0.12658 1.4919
-0.289699 -0.0420645 1.03026
0.417186 -0.103627 1.32733
0.534469 0.144253 1.11038
-0.672893 -0.313037 1.21123
-0.0873026 0.172486 0.533244
0.441741 0.146993 1.32859
-0.0995824 -0.00618682 0.734468
0.100562 -0.0584628 0.719475
-0.308689 -0.0822313 0.993352
0.00357047 -0.259126 0.76303
-0.443393 -0.384217 1.06557
-0.0189681 0.101126 0.645634
-0.195523 -0.126361 0.840954
-0.260672 -0.133148 0.673841
-0.282744 -0.0414802 1.00479
0.024027 0.0286192 0.729175
0.0130727 0.0247483 0.715221
-0.309568 0.165565 0.829024
0.21819 -0.379817 1.18243
-0.370347 0.0591121 1.18787
-0.377638 0.0915484 1.14377
-0.00693731 0.0650135 0.67869
-0.0565509 0.0217411 0.690317
-0.511732 -0.0303312 0.750788
-0.0748436 -0.00630727 0.715644
0.464599 0.15209 1.39615
0.228255 0.0583329 1.19783
-0.516196 0.0403858 0.77319
0.118629 0.172639 0.960051
-0.0700799 -0.00600847 0.667551
0.3913 0.125504 1.19427
-0.00110298 0.0225743 0.786511
-0.338591 -0.0370448 0.819333
0.145117 -0.297646 1.02262
0.48292 0.132599 1.15694
-0.122877 -0.180455 0.798557
-0.339597 -0.321667 1.17993
-0.179517 -0.140035 0.884691
-0.0566982 -0.109839 0.412112
0.405639 0.065185 1.37221
-0.0737028 0.0640374 0.714896
0.578005 0.120806 1.1754
-0.299286 -0.198716 1.1199
0.472634 0.15502 1.41912
0.450613 0.0734327 1.52609
-0.37231 0.11137 0.912679
-0.42021 -0.0527165 0.789679
-0.335889 -0.0854524 1.14085
0.0290504 0.133577 0.867409
-0.352156 -0.0619648 0.790679
-0.29759 -0.37032 1.02602
-0.661118 0.119632 0.96718
-0.604304 0.130962 0.897473
0.547946 0.15941 1.30608
-0.333489 -0.211483 1.18697
-0.275621 -0.0935933 0.7682
-0.554614 0.128704 0.812618
0.0814731 0.140405 0.795652
0.514143 0.143371 1.4465
-0.328471 -0.330796 1.16953
0.418422 -0.384144 1.16018
-0.169514 -0.376909 1.10573
0.358037 -0.402107 1.21025
-0.37865 0.0628241 1.14946
-0.503195 -0.130588 1.03595
0.554313 0.129563 1.49343
0.123405 -0.147839 0.873147
-0.596985 -0.138111 1.10683
-0.646275 0.15189 0.926102
-0.325817 -0.040447 0.82276
-0.341025 -0.325043 1.25764
0.560633 0.0888269 1.41367
-0.168784 -0.349052 1.08652
-0.102632 -0.230807 0.765279
-0.176644 -0.0291747 0.912592
0.139823 -0.346041 1.11136
0.157559 -0.324963 1.10964
0.219406 0.171917 1.3233
-0.505566 -0.321389 1.11776
0.307827 -0.25531 1.28027
-0.128441 -0.0852297 0.759046
0.107587 -0.0817369 0.795737
-0.175627 0.156667 0.554737
0.170085 -0.379939 1.1777
-0.705153 -0.364149 1.27092
0.39105 -0.397491 1.18302
-0.102246 0.208394 0.662658
-0.239549 0.0301936 0.962462
-0.299583 -0.293984 1.08966
0.4459 -0.0672818 1.28258
-0.227217 0.115393 0.703878
0.0127916 0.0234337 0.694093
-0.215487 0.0360944 0.902027
-0.324174 -0.327919 1.17961
-0.256341 0.125012 0.989807
0.0927571 0.152582 0.755948
-0.0595094 -0.112916 0.433877
-0.142133 -0.0251492 0.769751
-0.0910042 -0.0171403 0.753131
-0.105135 -0.180461 0.785792
0.463611 -0.122445 1.51786
-0.0904884 -0.324241 1.00785
-0.219422 -0.161332 0.928478
-0.0568659 -0.0106688 0.679941
-0.186489 0.164782 0.695187
-0.290641 0.169444 0.825877
0.463667 0.113499 1.27495
-0.275064 -0.200565 1.08567
-0.293845 -0.0818507 0.955427
-0.37645 0.127081 1.04791
-0.62383 -0.387842 1.13645
0.00806429 -0.385427 1.03858
-0.13368 -0.087312 0.79291
-0.144435 -0.0265127 0.786454
0.3443 0.143989 1.03164
-0.234838 0.0305938 0.938455
-0.101654 -0.0181941 0.798421
-0.234198 0.110894 0.905114
0.137379 -0.177167 0.944433
-0.776778 -0.382879 1.16948
0.382153 -0.0912995 1.36727
-0.516191 0.123345 0.834967
-0.329028 -0.041518 0.804502
0.0468865 0.171599 0.881712
-0.309386 -0.273048 1.09666
0.0201236 -0.00245405 0.556867
0.105633 -0.124568 0.788363
0.0184583 0.0241503 0.788587
-0.0615904 -0.0148285 0.653195
-0.626045 0.113967 0.91362
-0.151105 -0.0243626 0.879613
-0.977736 -0.310746 1.55374
-0.353458 -0.0736246 0.794104
0.607531 -0.198376 1.14843
-0.0565317 0.0247101 0.734363
-0.422386 -0.034815 0.736444
-0.298093 -0.0898881 1.04228
0.457269 0.147166 1.36458
-0.0609812 -0.105735 0.445445
-0.287181 -0.379225 1.04856
-0.0807282 -0.00944886 0.792497
-0.00862924 0.264459 1.0046
0.0403763 0.192219 0.728677
-0.160971 -0.306065 1.03072
-0.0845505 -0.00903767 0.82748
-0.192485 -0.361162 1.06789
-0.491356 -0.254561 1.11438
0.188861 0.178713 0.847846
0.200439 -0.227688 1.16781
0.0258617 -0.000655535 0.702062
0.262761 0.167745 1.01779
-0.287938 0.189605 0.856895
0.172321 0.203261 0.761138
0.172587 -0.350874 1.1982
0.31773 -0.0834189 1.04043
-0.373535 -0.24283 1.33128
0.0162979 0.065889 0.659094
-0.324018 -0.228773 1.24656
-0.364791 -0.0732163 0.836253
-0.162167 -0.100464 0.881818
-0.137144 -0.0585945 0.832938
-0.00671417 0.202603 0.824999
-0.068143 -0.0110291 0.688861
-0.0599145 -0.0111308 0.696981
-0.00225499 -0.000518651 0.668873
-0.278175 -0.185575 1.04164
-0.162749 -0.0984293 0.867535
-0.0572484 -0.0107122 0.667701
-0.315353 -0.374394 1.14795
-0.243064 -0.289565 0.899427
0.0806404 -0.201908 1.15534
-0.298353 -0.0373824 1.01824
-0.156399 -0.21989 1.23348
-0.254199 -0.271602 0.883989
0.00369885 -0.206579 1.16225
-0.232762 -0.277103 0.860837
-0.247721 -0.446339 1.38251
-0.127385 -0.232205 1.27086
0.0233087 -0.370301 1.21264
-0.366756 0.177216 0.816632
-0.619163 0.147066 0.891731
-0.494134 -0.311153 1.10076
-0.30778 -0.579924 1.71435
-0.341952 -0.429564 1.22686
-0.811937 -0.227995 1.15778
-0.0977089 -0.123562 0.876454
-0.331652 -0.0807074 0.981538
0.0163699 -0.230874 1.17988
-0.0286123 -0.0357272 0.836166
-0.266951 -0.237114 0.934783
-0.241293 -0.21778 0.8529
-0.286225 -0.258634 1.06213
-0.167956 -0.193358 1.08615
-0.140306 -0.254292 1.40644
-0.147573 -0.0674106 0.796347
-0.00135364 -0.0793705 0.834382
-0.220841 -0.202181 0.826737
-0.00140207 -0.078699 0.825502
-0.337696 -0.657944 2.28057
-0.046302 -0.0758023 0.853336
-0.114646 -0.192545 1.08336
-0.197862 -0.321957 1.30812
-0.227806 -0.269095 0.842198
-0.199286 0.159259 0.930894
-0.272011 -0.212422 0.951911
-0.794626 -0.367754 1.29735
-0.239158 -0.15007 0.867488
-0.728772 -0.334282 1.1884
-0.57253 -0.144503 1.16829
-0.367187 0.177617 0.81912
-0.333753 -0.0916526 1.11754
-0.34993 -0.106269 1.15523
-0.199388 0.159213 0.930608
-0.0184055 -0.0690765 0.846608
-0.188867 -0.31623 1.20363
-0.233215 -0.146807 0.845908
-0.132627 -0.194534 1.09714
0.0132734 -0.220663 1.12567
-0.00107051 -0.0795119 0.836813
-0.353012 -0.176301 0.88969
-0.137455 -0.183647 1.02816
-0.0947327 -0.208931 1.18097
-0.314142 -0.304689 1.1134
-0.0521722 -0.116806 0.836175
-0.0637662 -0.00863349 0.74768
-0.0423355 -0.0109019 0.8042
-0.119978 -0.206119 1.15382
-0.152106 -0.213662 1.18732
0.00295821 -0.203458 1.13195
-0.490451 0.177892 0.814174
