VERSION .7
FIELDS x y z
SIZE 4 4 4
TYPE F F F
COUNT 1 1 1
WIDTH 1697
HEIGHT 1
VIEWPOINT 0 0 0 1 0 0 0
POINTS 1697
DATA ascii
-0.316851 -0.128082 0.771691
-0.296125 -0.0459663 0.846914
-0.435881 -0.17262 0.950811
-0.442264 -0.348344 1.18984
-0.307315 0.0819387 0.667011
-0.324506 -0.0469259 0.789918
-0.267808 -0.0534215 0.672411
-0.22964 -0.407487 1.04061
-0.283649 -0.161242 1.13073
-0.299029 -0.157973 1.10501
-0.363503 -0.122336 0.63119
0.383981 -0.287559 1.20505
-0.221064 0.0521183 0.806192
-0.38557 0.0509497 0.618131
-0.419369 -0.336688 0.89157
-0.447757 -0.341164 0.884787
-0.187839 -0.0917591 0.893123
-0.152058 -0.423909 1.36004
-0.237341 -0.0336522 0.817866
-0.267153 0.0716714 0.709651
-0.505989 -0.0157554 0.749284
0.442741 -0.281771 1.17399
-0.304915 0.0713625 0.670605
-0.265969 -0.0600388 0.997719
0.259565 0.011515 1.20297
-0.43162 -0.301992 1.16603
-0.381708 -0.569395 1.50924
-0.188351 -0.597365 1.53116
-0.115438 -0.146994 1.14745
-0.479136 -0.0310694 0.689519
-0.428467 -0.325671 0.846664
-0.204294 -0.0327992 0.772782
-0.325806 0.110227 0.545618
-0.167407 -0.0472114 0.581342
-0.30473 -0.0248804 0.616946
-0.311773 0.00753955 0.560781
-0.372828 -0.0266091 0.589421
-0.340319 -0.0421142 0.741148
-0.489009 -0.0315993 0.703268
-0.0476608 0.109579 0.547349
0.23239 0.107088 0.467515
-0.380049 -0.357654 1.00404
-0.299845 -0.0552811 0.641388
-0.223944 0.0517224 0.813284
-0.369788 0.0865684 0.600808
-0.497936 -0.0153709 0.738841
-0.298259 -0.0596447 0.739867
-0.323081 0.0363808 0.801136
-0.369453 0.0634924 0.59705
-0.393463 0.104835 0.585501
0.0726968 0.0788252 0.679563
0.20554 0.0809749 0.689598
-0.361694 0.0837322 0.587729
-0.327278 -0.0883852 0.770794
-0.436281 -0.175094 0.953799
-0.432104 -0.147076 0.746805
0.255432 0.143138 0.487972
-0.35231 -0.117525 0.750442
-0.310517 -0.0517186 0.620492
-0.329869 -0.0650768 0.632301
-0.321326 -0.0848571 0.776548
-0.378555 -0.049424 0.58267
-0.398003 -0.150564 0.843957
-0.305179 -0.049176 0.591446
-0.329815 -0.0570263 0.62625
-0.367794 -0.051961 0.588037
-0.369914 -0.0775051 0.645185
-0.403753 -0.0630235 0.644475
-0.354408 -0.082449 0.718451
-0.305453 -0.0252028 0.618815
-0.277713 -0.0452569 0.580053
-0.415885 -0.0499889 0.636589
-0.322254 0.0890357 0.578481
-0.0371214 0.103401 0.557544
0.203127 0.0814629 0.68487
-0.295199 0.130441 0.441843
-0.314739 0.0942484 0.593378
0.236455 0.109379 0.474088
-0.2881 -0.0670603 0.845828
-0.308489 0.081166 0.664238
-0.397312 -0.0797146 0.773464
-0.295826 -0.0510794 0.845644
-0.352366 -0.0453157 0.56896
-0.258999 0.020464 0.964505
-0.334655 -0.015294 0.733862
0.204049 0.117971 0.406847
-0.396969 -0.159787 0.849993
-0.284135 0.124459 0.426042
-0.376954 -0.0255434 0.594542
-0.437059 -0.0803102 0.678748
-0.367118 -0.0519538 0.589291
-0.342729 -0.040233 0.745743
-0.354376 -0.0856178 0.718329
-0.478739 -0.07286 0.748991
0.268575 0.151846 0.511751
-0.196375 0.0233763 0.915938
-0.242453 -0.00101342 0.928501
-0.31213 -0.107108 0.547459
-0.385702 -0.0485966 0.620535
-0.498989 -0.0127771 0.741514
-0.318557 -0.0505411 0.611126
-0.343158 -0.0417943 0.747691
-0.487742 0.0737353 0.734429
-0.354747 -0.0478873 0.543039
0.130279 0.117773 0.472615
-0.483235 -0.137445 0.745312
-0.261654 -0.0813518 0.891594
-0.244739 -0.0511286 0.756269
-0.283401 -0.0778521 0.678992
-0.399601 -0.0795895 0.86524
-0.393875 -0.0253467 0.614762
-0.26524 0.0262328 0.900581
-0.393364 -0.163116 0.873003
-0.446377 -0.195624 0.985968
0.643217 0.0074875 1.20714
-0.232206 0.0129604 0.844378
-0.240653 -0.0658959 0.853477
-0.246551 0.131086 0.408488
-0.269886 -0.049645 0.84947
-0.25592 -0.0334827 0.885822
-0.256146 -0.0687007 0.800588
-0.217317 0.105574 0.575453
-0.439462 -0.128366 0.676624
-0.304715 -0.0505954 0.5915
0.552476 0.0076529 1.03957
-0.237483 -0.032726 0.820161
-0.283196 -0.0754685 0.882173
-0.312777 -0.0901908 0.804129
-0.346871 -0.0126273 0.757534
-0.40725 0.0604323 0.614861
-0.33627 -0.0630517 0.736967
-0.291298 -0.086184 0.850693
-0.447446 -0.259499 0.97935
-0.450295 -0.308496 0.900741
-0.273228 0.120224 0.389487
-0.153827 0.0445727 0.833246
-0.204172 0.0274929 0.723676
-0.225054 -0.000215698 0.81817
-0.0199603 0.0937545 0.572781
-0.440914 -0.127101 0.682808
-0.440426 -0.213855 1.07165
-0.211578 -0.0201898 0.809872
-0.147226 -0.0743257 0.818413
-0.20211 0.017721 0.878659
0.466438 -0.208298 0.940569
0.134394 0.0991774 0.537618
-0.422967 -0.341678 1.14883
-0.23497 -0.0218158 0.875595
0.0541151 0.0366565 0.92801
-0.291383 -0.142392 0.883409
-0.425057 -0.336147 1.01707
-0.00319319 0.0874199 0.603123
-0.194939 -0.0274298 0.887659
-0.442976 -0.351092 1.19171
-0.291723 -0.0423168 0.559013
-0.33157 -0.085482 0.802458
-0.429102 -0.331297 0.931637
-0.424222 -0.401126 1.12551
-0.494629 0.00395146 0.717823
-0.362692 0.0625368 0.585444
-0.295886 0.123608 0.432211
-0.2923 -0.10913 0.828715
-0.196829 0.0296547 0.927116
-0.109913 0.0887646 0.635647
-0.439696 -0.298713 1.14817
-0.426953 -0.252505 0.925719
-0.472673 -0.0300355 0.683067
-0.334297 0.0983291 0.608889
-0.333993 0.0548069 0.710471
-0.33053 -0.0465021 0.799438
0.863214 0.190656 1.90148
-0.374322 -0.0632879 0.63177
-0.199291 0.00274543 0.911519
-0.416313 -0.358613 0.989507
-0.308007 -0.0578619 0.656855
-0.517489 -0.0162669 0.767784
-0.439226 -0.246239 1.16977
-0.418791 -0.384913 1.12646
-0.199454 0.0270214 0.928727
-0.281358 -0.109431 0.870967
-0.327015 -0.105429 0.782688
-0.205155 -0.0755463 0.910123
-0.227675 -0.0044442 0.839963
-0.266445 -0.045274 0.860523
-0.263247 -0.113537 0.866451
-0.292732 0.0729136 0.718632
-0.44339 -0.212469 1.08203
-0.282796 0.0518813 0.623774
-0.312579 -0.135414 0.799951
-0.161766 -0.0502042 0.841648
-0.513207 0.00163593 0.757144
-0.418776 -0.387105 1.13333
-0.296614 -0.0471195 0.847298
-0.314077 -0.101072 0.744568
-0.00401252 0.092832 0.6348
-0.28996 -0.114862 0.883874
-0.322532 -0.104342 0.777107
-0.394793 -0.0751029 0.618296
-0.164048 -0.0521264 0.847952
-0.234446 -0.0194175 0.90512
0.651019 0.0703679 1.43617
-0.379171 0.096495 0.554853
-0.316294 0.0411554 0.571326
0.426705 -0.264876 0.922596
-0.440109 -0.195244 1.00691
-0.276258 -0.0483518 0.943994
-0.265244 -0.0757427 0.870193
0.513105 -0.288931 1.13559
-0.155274 -0.0519953 0.773556
-0.428273 -0.0668865 0.668641
-0.393041 -0.0565124 0.609621
-0.275759 -0.055719 0.658583
-0.203053 -0.0248842 0.892202
0.649677 -0.349165 1.12166
-0.288975 -0.0513318 0.899789
-0.270249 -0.087723 0.878712
-0.0474368 0.109844 0.548348
-0.135264 -0.0578467 0.67481
0.632715 -0.392966 1.18056
-0.267125 -0.126212 0.899204
-0.321532 -0.120205 0.795366
0.299901 0.0527198 0.866945
-0.280362 -0.139402 0.866311
-0.216281 -0.0308116 0.795676
-0.161278 -0.0226621 0.812682
-0.200548 0.00744897 0.920938
0.235578 0.109138 0.472488
-0.393124 0.0516271 0.626089
0.236625 0.0983752 0.474071
-0.303532 0.070034 0.66993
-0.00694876 0.0817279 0.666897
0.195215 0.112492 0.385241
-0.433485 -0.0780016 0.672472
-0.263214 -0.156406 0.886608
0.364291 -0.397885 1.1932
0.530207 -0.325756 1.12544
-0.256298 -0.0539426 0.877909
-0.427828 -0.299961 1.16013
-0.308092 -0.0570737 0.586626
-0.278556 -0.0733891 1.0582
-0.41279 -0.0265504 0.645048
0.191401 0.10234 0.381144
-0.437116 -0.218811 1.07192
0.07857 0.083143 0.714893
-0.359192 -0.0366881 0.558651
-0.444943 -0.357111 0.94624
-0.191801 -0.0256943 0.864354
-0.20835 0.0162692 0.915586
-0.219295 -0.00947583 0.807344
-0.26607 -0.143035 0.878891
-0.296478 -0.167918 1.17566
-0.286809 -0.106711 0.851813
-0.298844 -0.0423863 0.57261
-0.425151 -0.0659327 0.663799
-0.210882 -0.0700068 1.03559
0.243053 0.101291 0.486073
-0.378799 -0.374621 1.09068
0.386577 -0.290963 1.20401
-0.439576 -0.335638 1.13737
-0.380734 -0.209494 1.14454
-0.427002 -0.160064 0.872927
-0.434983 -0.0680907 0.678598
-0.386003 -0.387492 1.12313
-0.379776 -0.134694 0.800347
-0.506594 -0.2064 0.752432
0.223308 0.0948926 0.550928
0.640807 -0.382324 1.17323
0.607973 -0.375004 1.12714
0.457843 -0.296853 1.16274
-0.311962 -0.0636204 0.609673
0.584989 -0.211032 1.17797
0.473642 -0.282047 1.15919
0.471925 -0.279851 1.15564
-0.418634 -0.357951 1.08275
-0.375917 -0.388844 1.10749
-0.359709 -0.0617654 0.674907
0.143898 -0.0419173 1.37426
0.390552 -0.323918 1.19116
0.238465 0.106557 0.477581
-0.519137 0.000922406 0.767246
-0.382037 0.111221 0.729416
-0.380958 -0.0829146 0.660316
-0.343542 -0.0355378 0.535561
-0.188516 -0.098184 0.901071
-0.158644 -0.0781555 0.849205
-0.444216 -0.341392 0.959729
0.582616 -0.24956 1.11556
0.230232 0.0978391 0.568076
0.227826 -0.0281248 0.418472
0.512824 -0.286504 1.136
0.216494 0.102431 0.436745
-0.495419 0.00480947 0.71887
-0.308179 -0.0572805 0.656001
-0.420701 -0.231717 1.24803
0.461456 -0.273888 1.00274
0.402894 -0.319909 1.18194
-0.243375 -0.0601251 0.913615
-0.160028 -0.0171627 0.838081
-0.198428 -0.00161677 0.902454
0.242177 0.100882 0.484126
-0.348677 -0.0186468 0.764474
0.593255 -0.369457 1.08692
0.629546 -0.394406 1.12649
0.475749 -0.253481 1.02271
-0.219923 -0.0234225 0.798132
0.366228 -0.113524 1.25125
0.139767 0.0994497 0.552053
0.206883 0.123583 0.413741
0.233662 0.105746 0.469943
-0.413428 0.0629848 0.620447
-0.217967 -0.0310625 0.797141
-0.438949 -0.191442 1.00608
0.472319 -0.328522 1.15196
0.567318 -0.207825 1.13109
0.139454 0.0989293 0.550403
-0.177656 -0.0782918 0.873688
-0.316813 -0.0643565 0.609477
0.616371 -0.382651 1.12283
-0.331293 -0.0532435 0.621653
0.565524 -0.236605 1.1233
-0.46004 -0.258857 0.920464
0.62832 -0.392113 1.11922
0.466659 -0.317143 1.15446
0.412672 -0.286267 1.18592
0.472428 -0.330275 1.14801
-0.374465 -0.0552285 0.595527
-0.381962 -0.0768124 0.728397
-0.34074 -0.121926 0.754881
0.557117 -0.238667 1.07395
0.557566 -0.250619 1.1259
-0.298581 -0.060213 0.734717
0.382822 -0.334909 1.18788
-0.361873 0.0891582 0.846857
0.211181 0.0825871 0.394481
0.158102 -0.420863 1.63019
0.578379 -0.20108 1.12426
-0.291061 -0.402591 1.15692
0.55779 -0.251581 1.1274
-0.423436 -0.193916 0.928007
0.450127 -0.286765 1.18124
0.537886 -0.348926 1.21612
0.445859 -0.292065 1.16794
0.345688 0.0653198 0.785455
0.448464 -0.31765 1.16294
-0.216292 -0.0251828 0.838216
0.103464 0.0950665 0.456312
-0.316197 -0.0642668 0.70609
-0.461091 -0.152705 0.867726
-0.389158 -0.0608294 0.624119
-0.444293 -0.301027 1.15605
-0.293197 -0.060109 0.658102
0.842407 -0.907716 3.15434
-0.15976 -0.00926325 0.83413
-0.266687 -0.0531232 0.672009
-0.234396 0.0129097 0.846198
-0.29423 0.0779896 0.616899
0.384537 -0.289173 1.20303
-0.459909 -0.121522 0.862978
-0.153874 -0.0231385 0.806971
0.412326 -0.332263 1.1783
0.57639 -0.239574 1.11302
-0.276437 -0.0647646 1.03468
-0.521942 0.00349468 0.77238
0.432066 -0.344284 1.23435
-0.377847 0.0656942 0.611023
-0.471186 -0.207736 1.03094
0.977398 -0.980299 3.53278
0.112183 -0.125443 0.479197
0.363062 -0.114357 1.24966
-0.29513 -0.105876 0.834811
-0.28941 -0.0664479 0.854171
0.412158 -0.333835 1.17443
0.467713 -0.316804 1.15701
-0.224514 0.0188525 0.818643
0.0920175 -0.0844176 1.33402
0.560872 -0.389467 1.36452
0.392339 -0.297017 1.21609
-0.271014 -0.053566 0.662354
0.403775 -0.287667 1.17134
0.479366 -0.00371529 1.17062
-0.31022 -0.0493898 0.602271
-0.313253 -0.0568183 0.660712
-0.158082 -0.0145614 0.813886
0.427631 -0.315291 1.12049
-0.328812 -0.103521 0.770107
-0.247625 -0.0717482 0.852501
-0.0193557 0.0962409 0.580966
-0.347776 -0.00909844 0.753261
0.559113 -0.25055 1.12615
0.500789 -0.279722 1.14511
-0.451104 -0.12834 0.848267
-0.295267 -0.1598 1.09489
0.135668 -0.388529 1.43063
-0.407589 -0.201429 0.994171
0.530565 -0.275864 1.13184
-0.389624 -0.222211 1.51297
0.467783 -0.290488 1.15687
0.404 -0.317625 1.18077
0.366669 -0.0202931 1.25517
-0.379696 -0.132144 0.6623
-0.197023 -0.118083 0.926097
-0.287135 -0.13947 0.861048
0.578777 -0.202127 1.12652
-0.0977897 -0.0156883 1.14836
-0.144849 -0.0683661 1.36892
0.526858 -0.579036 2.21976
0.504676 -0.31346 1.13748
0.449746 -0.318194 1.16461
-0.447613 -0.18152 0.906082
0.369629 -0.0207266 1.26194
0.356664 -0.125359 1.80567
0.242333 -0.255551 1.53525
-0.27595 -0.137888 0.859502
-0.164173 -0.0758318 0.850054
-0.17594 -0.0566156 0.880716
-0.295246 -0.0668002 1.10105
0.576409 -0.216947 1.12474
0.169018 0.091002 0.613135
0.504637 -0.314085 1.13915
-0.174059 -0.0898699 0.884402
-0.435964 -0.21678 1.05132
-0.347389 -0.0404365 0.751812
0.565829 -0.236909 1.12425
-0.198739 0.0153071 0.901947
-0.329017 -0.0615863 0.686734
-0.206434 0.0170025 0.926031
-0.161284 -0.497223 1.44433
0.500059 -0.329788 1.13939
0.515149 -0.285665 1.13893
0.129143 -0.320156 1.31807
-0.259724 -0.0872801 0.848575
0.374523 -0.411918 1.90112
0.12897 -0.351592 1.30466
-0.364894 -0.0673118 0.643128
-0.109989 0.0884834 0.636537
-0.169005 -0.0258048 0.834514
0.0781739 -0.0305321 1.31302
0.556548 -0.199884 1.13263
0.455336 -0.430494 1.52141
0.0990096 -0.0463569 1.34936
0.224342 -0.456189 1.74231
0.348726 -0.384968 1.15662
0.066095 -0.418556 1.29439
0.44344 -0.487749 1.46103
0.271236 -0.358195 1.9542
-0.440182 -0.174613 0.949952
-0.193276 -0.0577142 0.885244
0.448869 -0.335351 1.17551
0.442998 -0.28246 1.17208
-0.325404 -0.12822 0.771652
-0.431142 -0.162369 0.870929
0.389915 -0.295537 1.19261
0.48989 -0.312269 2.08004
0.531159 -0.194006 1.07815
-0.191996 -0.0965593 0.911978
-0.216606 -0.00849841 0.800447
0.683585 -0.817243 2.42325
0.384688 -0.340715 1.19724
-0.379254 -0.395264 1.1208
0.194036 -0.284094 1.5793
-0.193666 -0.0939924 0.918877
0.146651 -0.382023 1.54707
-0.261304 -0.120199 0.870034
-0.317934 -0.0838575 0.771888
0.139882 -0.0446483 1.3633
-0.202807 -0.077687 0.911533
-0.319551 -0.0392182 0.686238
-0.446 -0.259224 1.76701
-0.336875 -0.0716409 0.684606
-0.124189 -0.0536696 1.20839
-0.31803 -0.0698265 0.644698
-0.292951 0.0807296 0.58271
0.412826 -0.334028 1.17812
0.0747148 -0.248274 1.33474
-0.328246 -0.0704254 0.673529
-0.324659 -0.0875034 0.780119
-0.242216 0.0143228 0.917792
-0.434719 -0.241215 1.16148
-0.208427 -0.0311726 0.771543
0.44134 -0.333231 1.16578
-0.259046 -0.362787 1.0329
-0.156044 -0.434837 1.40633
0.0681676 -0.41944 1.29582
-0.257562 0.0266991 0.877376
0.447544 -0.307864 1.12633
0.520828 -0.776457 2.45323
-0.398429 -0.209875 1.1167
-0.189479 -0.0815585 0.910649
-0.408111 -0.15757 0.842508
-0.304285 -0.0239609 0.620832
-0.0601522 0.0244924 0.989723
0.0734985 -0.245385 1.33057
0.329531 -0.545277 2.25575
0.483317 -0.286974 1.04686
0.502157 -0.327906 1.14151
-0.318767 -0.0731494 0.917871
0.497229 -0.328166 1.13698
0.456166 -0.667315 2.28591
-0.165913 -0.0355952 0.830374
0.0638062 -0.419206 1.30069
0.430919 -0.148282 1.98082
0.201903 0.079777 0.683549
0.445197 -0.150343 2.04721
-0.0273181 -0.438828 1.26767
0.288739 -0.63239 2.25429
0.0736177 0.0791879 0.686828
0.112168 -0.359453 1.33017
0.390708 -0.106801 1.35465
0.0754467 0.0801134 0.690814
-0.363488 0.0647325 0.759486
-0.260183 -0.112794 0.860305
0.369607 -0.61845 2.55982
-0.326706 0.0391076 0.804138
0.571173 -0.346481 1.21582
-0.0156966 -0.141118 1.08933
-0.14274 -0.0400978 1.28667
-0.249453 -0.071332 0.861983
-0.37314 -0.0776579 0.653318
0.607417 -0.816943 2.78863
0.659732 -0.564471 3.12814
-0.197769 -0.121635 0.923083
0.114083 -0.362358 1.35804
0.501624 -0.277989 1.15131
0.018499 -0.428596 1.33755
0.31635 -0.426316 2.24639
-0.307523 0.0876134 0.589337
0.112449 -0.324639 1.34217
-0.399322 -0.302472 1.08177
0.30084 -0.0856945 1.6617
-0.35378 -0.0366919 0.738167
-0.449945 -0.245719 0.90404
-0.0165377 -0.196229 1.08977
0.700752 -0.953942 3.13812
-0.324498 0.0949412 0.625337
-0.315576 -0.0908419 0.809802
-0.306706 0.0480458 0.872946
-0.323626 -0.0908425 0.782653
1.01065 0.106043 2.21939
-0.360098 -0.0724497 0.730054
-0.207278 0.0689059 0.721201
0.213693 0.0523441 0.860479
0.0377583 -0.0164321 1.21782
0.0842258 0.0694408 0.743358
0.949189 -0.989015 3.59512
-0.271295 -0.0544279 0.670305
-0.145202 -0.104174 1.30497
-0.328405 -0.120026 0.753274
0.45125 -0.382883 2.2586
-0.225869 -0.031557 0.812029
0.4042 -0.303485 1.19246
-0.29769 -0.103 0.840461
-0.307994 -0.0597695 0.901531
-0.140468 -0.0709716 0.812973
-0.31984 -0.0628612 0.767166
-0.144331 -0.0722346 1.40008
0.292999 -0.389065 2.06653
-0.164253 0.06404 0.83019
0.182891 -0.267861 1.51407
0.583318 -0.797387 2.74187
-0.000884076 0.0943769 0.627957
0.589286 -0.689285 2.97137
-0.309723 -0.13321 0.793034
-0.20511 -0.0731129 0.896016
-0.455038 -0.216029 1.09985
0.676379 0.0409663 2.81921
0.613401 -0.843825 2.69562
-0.21457 0.0225668 1.06114
0.0864489 -0.230087 1.28868
-0.279058 -0.16203 1.09228
-0.153579 -0.474087 1.37488
-0.466012 -0.121903 0.871031
0.391738 -0.00919965 1.08118
-0.253786 -0.111005 0.847214
-0.27172 0.0709063 0.711715
0.388576 -0.357215 2.07515
0.853388 -0.721056 3.46597
-0.265739 -0.0612852 0.998521
-0.158929 -0.0280896 0.827694
0.416545 -0.284292 1.18952
-0.309721 -0.0240841 0.622965
0.285396 0.00843196 1.21836
-0.330366 -0.102785 0.771002
-0.150366 -0.41981 1.35419
0.473119 -0.279475 1.15677
-0.190117 -0.0831755 0.901506
0.0842569 -0.227831 1.30307
0.604125 -0.869069 3.01964
0.944569 -0.576636 3.36747
-0.43789 -0.212751 1.06954
-0.207519 0.0156861 0.920356
-0.318205 0.0970061 0.598375
-0.202991 -0.123031 0.945971
-0.307123 0.0812014 0.664957
-0.356244 -0.0800738 0.726875
-0.331784 -0.0168101 0.733819
-0.293477 -0.112659 0.830849
-0.297317 -0.396449 1.17061
0.498335 -0.278953 1.14481
-0.325202 0.0469771 0.694006
-0.0780277 -0.24816 1.23916
0.0710496 -0.248895 1.31104
0.572085 -0.846481 2.69541
-0.0729433 0.0243949 0.999288
-0.400836 -0.152024 0.842929
0.660816 -0.725803 3.07332
0.681197 -0.829861 3.0875
-0.315363 0.0964235 0.596569
0.350163 0.00580644 1.14807
-0.199347 0.0291108 0.924955
-0.1997 0.0323421 0.939859
0.364335 -0.4 1.1974
0.800747 -0.840835 2.97108
-0.450923 -0.213018 1.08569
0.224402 -0.404769 1.72549
0.184678 -0.278465 1.53377
0.741314 -0.96475 3.22061
0.0723729 -0.244721 1.33618
0.980037 -1.01659 3.63708
-0.328647 -0.0822703 0.772908
-0.258892 -0.0784945 0.856161
0.855918 -0.789654 3.46379
0.346376 -0.601212 2.3467
0.691002 -0.864268 3.1509
-0.297291 -0.130709 0.828527
-0.305205 0.0924786 0.629497
-0.290266 -0.105589 0.860653
0.579816 -0.76763 2.92126
-0.293072 -0.0468457 0.860536
0.853988 -1.00179 3.43657
-0.134516 -0.0982033 1.29255
0.892114 -0.99457 3.53407
0.731151 -0.780081 3.43338
0.318185 -0.527904 2.18765
0.66248 -0.791495 2.34308
0.498548 -0.322664 2.095
0.721787 -0.552274 2.97436
-0.187553 -0.0568596 0.872541
-0.442625 -0.221663 1.08523
-0.233418 -0.013145 0.84329
-0.326162 -0.105658 0.778865
-0.0181344 -0.191464 1.07383
0.0178362 -0.39571 1.35062
0.15758 -0.323796 1.35892
-0.293498 -0.0713635 0.851158
0.584082 -0.728713 2.9492
0.906485 -0.842009 3.62918
-0.292065 0.0132859 0.524406
0.575104 -0.82844 2.90943
-0.122857 0.0191762 1.02986
-0.311718 -0.125069 0.793592
0.389834 -0.295786 1.19586
0.556153 -0.738443 2.82823
0.0754248 0.0786812 0.685515
-0.134697 -0.102205 1.28404
-0.286069 -0.165636 0.942064
-0.296043 -0.134741 0.855812
0.569932 -0.817108 2.88541
-0.140009 0.0768127 0.686652
-0.394009 -0.232102 1.12485
-0.454237 -0.346309 1.17487
-0.258961 0.035497 0.883637
0.469996 -0.328307 1.14731
-0.0159055 -0.199065 1.10088
0.620486 -0.21378 2.49673
-0.272646 -0.146937 0.896736
-0.139897 0.0766366 0.685773
-0.324237 0.0382657 0.797783
0.321015 -0.19549 1.73714
-0.409107 -0.360732 1.0454
-0.325098 -0.0659101 0.667398
0.586956 0.0288453 2.50212
0.00142865 -0.435356 1.37666
-0.438145 -0.214782 1.0857
-0.163167 -0.0853472 0.862895
0.577816 -0.654317 2.94287
-0.562024 -0.17415 1.03914
0.0913377 -0.120106 1.32152
-0.266741 0.0728056 0.7118
0.124045 -0.012537 0.783852
0.127367 -0.357042 1.33225
-0.0298778 -0.14384 1.09867
-0.240338 -0.0450829 0.818543
0.416235 -0.308194 1.20606
0.630136 -0.850133 2.93459
-0.346242 -0.178697 0.990106
0.373405 -0.130844 1.26275
-0.292158 -0.0299434 0.859751
-0.43956 -0.401037 1.16737
0.780565 -0.888155 3.43407
-0.212165 0.0843028 0.639117
-0.327931 -0.0606131 0.782923
-0.459936 -0.198009 0.985293
-0.10986 -0.00765194 1.16896
-0.31892 -0.0904923 0.816715
0.4566 -0.296879 1.16077
0.863658 -1.09835 3.67665
0.390867 -0.323198 1.18809
-0.2431 0.0660949 0.741668
0.134838 -0.359373 1.32747
-0.281259 -0.061503 0.884416
-0.222943 -0.031822 0.806168
-0.31833 -0.102936 0.786769
-0.00635291 0.077053 0.654398
0.573921 -0.669167 2.90047
0.414104 -0.284692 1.1869
0.364994 0.0346662 0.849146
-0.281829 -0.0572022 0.6743
-0.224259 0.0539212 0.814078
0.96637 -1.21906 4.06999
0.572153 -0.817435 2.89364
0.989417 -0.963302 3.75132
-0.269568 0.070687 0.71009
-0.176503 -0.0542651 0.860719
-0.442746 -0.266799 0.944005
-0.313932 0.0857137 0.662095
-0.344608 -0.125667 0.70821
0.0765264 0.0800932 0.691444
-0.00634559 0.0843401 0.6741
-0.312338 -0.0615447 0.686266
0.863494 -0.89601 3.49717
0.229558 0.0669879 0.740535
0.736625 -0.822732 3.15869
-0.358042 0.0626064 0.751764
-0.203763 -0.061548 0.902378
-0.026138 -0.00796941 1.11302
-0.231462 0.0215283 0.835043
0.373768 -0.0626009 1.27364
0.684511 -0.737488 3.20693
0.912224 -0.832447 3.6369
0.388844 -0.323642 1.18951
-0.302156 0.0905435 0.625361
-0.270202 -0.0603921 0.855352
-0.293876 -0.0300063 0.863225
-0.282203 0.0966069 0.597801
0.468617 -0.289142 1.15776
-0.159129 -0.0298233 0.825613
-0.482834 -0.304985 1.06606
-0.260807 -0.0858081 0.859345
0.14438 0.0443321 0.883331
-0.307427 -0.0628485 0.620844
0.448905 -0.316756 1.16274
0.0206801 -0.385062 1.31808
-0.304423 0.0259086 0.857338
-0.157804 -0.0498771 0.847626
-0.305659 0.0826225 0.664926
-0.444922 -0.177116 0.906263
0.846645 -0.993718 3.41332
-0.242828 0.0664678 0.741912
0.908641 -0.913019 3.50921
-0.22816 0.000116126 0.890087
-0.373685 0.0662618 0.77257
-0.00262903 -0.00729331 1.11058
-0.253006 0.0323917 0.856696
0.150087 -0.313224 1.31851
-0.286764 -0.105396 0.852494
0.373853 -0.687097 2.49068
-0.175772 -0.0279105 0.837276
-0.322187 -0.0625242 0.772713
-0.264234 0.0644943 0.752734
-0.274145 -0.0732998 1.04617
-0.10587 0.0656508 0.75878
0.899804 -0.917736 3.60555
0.887755 -1.00862 3.53392
-0.148376 -0.071126 0.815692
-0.0194383 -0.188632 1.06321
-0.278929 -0.0464511 0.6042
-0.175271 0.0588274 0.79351
0.714377 -0.551631 2.93935
-0.1611 -0.0154547 0.827522
-0.0444659 -0.227728 1.20722
-0.388568 -0.32678 1.12648
-0.343763 -0.130372 0.777152
-0.38776 -0.306231 1.09842
0.212583 -0.302042 1.63829
-0.238451 0.025709 0.852833
-0.341952 -0.0710772 0.677832
-0.279684 -0.114544 0.869933
-0.297495 0.0440598 0.883346
-0.184598 -0.0257813 0.852911
-0.203895 0.0255782 0.931238
0.122824 -0.335264 1.37021
-0.28336 -0.0751048 0.880607
-0.271637 -0.156308 0.882838
-0.35418 -0.12448 0.738668
-0.449295 -0.20229 0.988424
-0.290708 -0.0604261 0.656632
0.0572859 0.0388865 0.938587
-0.0355254 0.0735065 0.724526
0.274761 -0.00324223 1.17268
-0.277037 -0.0743959 0.868738
-0.152167 0.0484168 0.836205
0.34393 0.0343471 0.966601
-0.318176 -0.0698968 0.644792
0.795802 -0.914693 3.45863
-0.357585 -0.0577233 0.776391
-0.326432 0.0537603 0.791259
-0.0679881 -0.265566 1.2964
0.133152 -0.318253 1.32213
-0.252906 0.0277444 0.941226
0.602216 -0.801298 2.99336
-0.35102 0.0414506 0.759384
-0.156113 -0.0407473 0.832759
-0.450476 -0.164391 0.910204
0.470215 -0.329029 1.14408
-0.248227 0.0247742 0.923053
-0.333083 -0.0451842 0.800236
-0.329277 0.0564978 0.880575
-0.445336 -0.273835 0.891817
-0.329807 -0.0901865 0.774382
0.214308 0.0561724 0.884015
-0.448759 -0.192071 1.02175
0.463382 -0.179612 1.97239
0.279947 -0.00165717 1.1824
-0.00694312 0.0814018 0.666634
-0.169433 -0.00304934 0.856801
-0.296059 -0.304088 1.08619
0.138471 0.0771514 0.726217
0.0997883 0.0546766 0.818126
-0.307721 0.0431421 0.668605
-0.287119 -0.0719405 0.863248
-0.212657 -0.0638852 0.742286
0.903565 -0.797775 3.6157
0.650604 -0.851012 3.03821
-0.323592 -0.084413 0.783407
-0.190064 -0.0905671 0.901566
0.27295 -0.00371022 1.16731
-0.436157 -0.211626 1.10665
-0.279024 -0.0468549 0.599867
-0.207635 0.00675717 0.918995
-0.295666 -0.0586566 0.841501
0.204888 0.0363359 0.727441
0.0770077 0.0797642 0.689236
-0.452411 -0.212504 1.0733
-0.295901 -0.0644321 0.845524
-0.376792 -0.308284 1.11521
-0.282536 0.0720529 0.786612
-0.292144 -0.0463515 0.858942
-0.25826 -0.0513417 0.879221
0.913004 -1.02765 3.62918
-0.301548 0.0743772 0.713525
0.0768805 0.0803238 0.690794
0.734559 -0.281805 2.58814
-0.268885 -0.0529251 0.670519
-0.289618 -0.0677122 0.853395
0.216641 0.0195347 1.05756
-0.294205 -0.166131 1.15946
0.0414479 0.072366 0.698814
0.484273 -0.192078 2.07624
-0.0675405 -0.260435 1.27555
0.273759 0.0265529 0.996168
-0.289836 -0.137191 0.859844
0.440179 -0.331279 1.16167
-0.35962 0.0547192 0.758624
0.361779 -0.112128 1.23063
0.703433 -0.849982 3.15964
-0.292644 0.0729122 0.71534
-0.289948 -0.0727751 0.87385
-0.298148 -0.166404 1.18807
-0.279563 -0.129845 0.924231
-0.307623 0.0270083 0.865113
-0.00542378 0.0870738 0.681591
-0.113311 -0.148529 1.15742
0.376801 -0.312172 1.92873
-0.287074 -0.0810225 0.853963
-0.335364 -0.118579 0.737538
-0.336965 -0.0201554 0.781969
0.261804 0.0592069 0.823698
-0.353992 -0.116561 0.74953
-0.143177 0.0792655 0.694673
0.255968 0.0504919 0.787177
-0.321795 -0.0836622 0.781447
-0.334244 -0.0352012 0.788526
-0.262438 -0.0536714 0.665361
-0.28607 -0.15526 0.922154
0.00643481 -0.43605 1.37209
-0.24261 0.0815674 0.656531
-0.331518 -0.126022 0.707855
-0.190055 -0.0605569 0.889332
-0.436991 -0.177952 0.892429
0.873549 -0.818778 3.52232
-0.29657 -0.0457559 0.868052
0.36751 -0.125884 1.83715
0.246801 0.0420727 0.92643
-0.211918 0.0178673 0.790648
-0.304344 -0.134049 0.809991
-0.0120298 0.00117699 1.10329
-0.178043 -0.0896914 0.907139
-0.191118 -0.083967 0.904099
-0.194484 0.0311329 0.917932
-0.288427 -0.0713807 0.865817
0.0560861 -0.0263522 1.24761
0.22484 0.0144108 1.07169
0.101958 0.0566316 0.825168
-0.274433 0.0612372 0.755083
-0.203736 0.0117321 0.911809
0.133474 0.0438423 0.888091
-0.0781355 0.0656621 0.734651
-0.240944 -0.033077 0.823913
0.585351 -0.65656 2.97051
-0.240566 -0.0445443 0.819915
-0.159667 -0.041065 0.843776
-0.161697 -0.0367594 0.826388
-0.280732 -0.139964 0.871908
-0.0206028 0.0671678 0.750849
0.100375 0.0554058 0.820145
-0.492329 -0.212752 1.10081
-0.0163767 -0.142416 1.08928
-0.252897 -0.0424864 0.826397
-0.178454 -0.0549925 0.867348
0.0284068 -0.0133661 1.19911
-0.345167 -0.0122586 0.758152
-0.259932 0.00237912 0.968904
-0.335477 -0.127572 0.762594
-0.454901 -0.210166 0.998273
-0.312371 0.0492745 0.821388
-0.247262 -0.0366933 0.831882
-0.278817 -0.142181 0.851655
-0.238178 -0.0144929 0.858562
-0.322788 -0.104213 0.794313
-0.434684 -0.253635 0.936928
-0.423618 -0.297617 1.15773
0.588311 -0.756369 2.17697
0.411794 -0.287333 1.1856
0.0169055 0.0860551 0.659725
0.986264 -0.965521 3.75304
-0.265414 -0.07421 0.843878
-0.142859 0.0187121 1.0436
-0.434742 -0.253097 0.955288
0.0184302 0.0726053 0.717137
-0.343079 -0.0135984 0.753282
-0.391627 -0.317429 1.10303
-0.296761 -0.0579295 0.84333
-0.323784 -0.104633 0.778561
-0.0715756 0.0842524 0.654936
-0.331467 -0.102467 0.771671
0.0182986 -0.448398 1.38051
-0.241735 0.0333186 0.848299
-0.311311 0.0862683 0.665919
-0.467924 -0.305056 0.981536
0.494595 -0.00455977 1.16461
-0.193343 -0.119802 0.903555
-0.331165 -0.0920471 0.776037
-0.394088 -0.303293 1.15857
-0.241701 0.0162481 0.921014
-0.347678 0.037429 0.746229
-0.152002 -0.0370427 0.754296
-0.160411 -0.0121927 0.826103
-0.343309 -0.117767 0.749127
-0.270643 -0.0557637 0.650686
0.0881081 0.0722092 0.755933
-0.448037 -0.204468 0.986753
0.152967 -0.424826 1.30979
-0.343787 0.00976579 0.746803
-0.161546 -0.00688931 0.83915
-0.20433 0.02791 0.933805
0.952103 -0.950384 3.75768
-0.329111 -0.102771 0.769151
-0.314544 0.0457899 0.677733
-0.44084 -0.173253 0.957375
-0.463323 -0.179079 0.988523
-0.427787 -0.17408 0.941097
0.551501 -0.731289 2.81213
-0.0984734 -0.0567635 0.459764
0.322451 0.0131316 1.09381
0.209532 0.020251 1.03894
-0.162809 -0.167288 1.40351
0.0830507 0.0684542 0.740607
-0.302312 0.0248606 0.853623
-0.267457 -0.158049 0.893127
0.623593 -0.676491 2.95239
-0.287292 -0.0822578 0.86903
-0.158775 -0.0830093 0.852974
-0.360726 0.0413819 0.765637
-0.249568 0.0270762 0.852035
-0.350384 -0.0361645 0.730979
0.0679258 0.0677977 0.75605
-0.293411 -0.398191 1.16109
-0.424492 -0.205805 1.14396
-0.277283 -0.0553185 0.683697
-0.264009 -0.0524552 1.01495
-0.328128 -0.082991 0.771971
0.0766894 -0.442104 1.36227
-0.416208 -0.330467 1.14
0.447348 -0.291146 1.17013
-0.328819 -0.0832557 0.792808
-0.332614 -0.105626 0.793635
0.21492 0.0535318 0.861429
-0.159915 -0.0845826 0.85325
-0.0486267 -0.240591 1.29527
-0.173989 -0.0640191 1.47476
0.343575 0.00441952 1.13419
-0.164714 -0.0277723 0.817646
-0.282926 -0.0831909 0.836572
-0.275134 -0.053083 1.05071
-0.309205 -0.135658 0.794037
-0.333548 0.0342621 0.727708
0.198864 0.0477276 0.843641
-0.283116 -0.0830931 0.86035
-0.455625 -0.261436 0.966053
-0.169645 -0.522674 1.51242
0.0131536 -0.39915 1.37073
-0.363729 -0.130475 0.734275
-0.206633 0.0688257 0.720104
-0.16907 0.0736739 0.70159
-0.301035 -0.0446 0.856304
0.662821 -0.758675 3.12582
-0.324355 0.0909317 0.672918
0.131445 -0.353673 1.31228
0.164228 0.0605834 0.778393
0.142866 -0.373395 1.3774
0.699875 -0.271183 2.49991
0.0550749 0.0358253 0.923986
0.0748796 -0.248839 1.36326
-0.338609 0.0589095 0.774616
0.260968 0.0590737 0.823513
-0.157633 -0.0255338 0.825078
0.2148 0.053369 0.861773
-0.167771 -0.0544977 0.852623
-0.206764 0.0676628 0.714318
-0.224068 -0.0179979 0.823735
-0.257367 -0.0737925 0.87206
0.0116759 -0.395624 1.35921
0.817787 -0.90061 3.44968
-0.157704 0.0514328 0.849774
0.387026 -0.2205 1.21501
-0.105056 0.0638586 0.752306
-0.0142664 -0.199433 1.10104
0.875081 -0.852021 3.02854
-0.33381 -0.122948 0.810728
-0.311089 -0.158956 1.14153
-0.261142 -0.085507 0.861457
-0.224111 -0.00455298 0.819091
-0.323841 -0.110132 0.773475
-0.349392 -0.109595 0.741992
-0.187558 -0.118016 0.881823
-0.346275 -0.129965 0.777246
-0.301712 -0.0472308 0.877447
-0.145955 -0.0691989 0.825536
-0.229339 -0.0286628 0.823455
-0.317213 -0.129147 0.814105
-0.141636 -0.0704236 1.35264
0.64974 -0.761028 2.9311
-0.105167 0.0654213 0.754861
-0.172787 -0.0775934 0.860223
-0.293006 0.0430026 0.835968
-0.450435 -0.20749 1.06738
-0.242523 -0.0145115 0.890419
-0.115602 -0.272005 1.05552
0.15893 0.070997 0.766488
0.884368 -1.00353 3.51454
0.0190825 0.0722928 0.717536
-0.204587 -0.0330841 0.7883
0.103914 0.0580469 0.830425
0.394859 -0.0116525 1.18797
-0.487975 -0.216443 1.07001
-0.228711 -0.0308176 0.818767
-0.446672 -0.244393 1.18438
0.0271551 -0.0143552 1.18579
0.713538 -0.27313 2.54507
-0.334809 -0.0604571 0.79902
-0.0308472 -0.00606299 1.11536
-0.169863 0.0751484 0.704413
-0.331332 -0.102845 0.771653
-0.226666 -0.00143693 0.819627
-0.463084 -0.264277 0.977931
-0.315779 -0.134314 0.81291
0.160807 0.0409923 0.848881
-0.29688 -0.113324 0.8363
-0.15905 -0.0404621 0.851831
-0.306981 -0.0889804 0.796175
-0.202323 0.00594652 0.904746
0.789102 -0.807133 2.57469
-0.155488 -0.0790935 0.843469
-0.197398 -0.110339 0.922349
0.243169 0.00841688 1.10556
0.394839 -0.244649 1.2906
-0.16411 -0.0352169 0.821272
-0.434793 -0.210457 1.07412
-0.449287 -0.22023 0.905416
-0.0185482 0.00218409 1.14509
-0.45971 -0.195872 1.03966
-0.204921 0.0325612 0.942873
-0.28422 -0.0819077 0.863231
-0.299209 -0.112956 0.842045
-0.18975 -0.0572727 0.877725
-0.483978 -0.330029 1.12303
-0.172004 -0.0604621 0.842557
-0.164102 -0.0477543 0.851532
-0.160978 -0.0371298 0.826693
-0.300096 -0.0524917 0.883113
-0.266638 -0.113484 0.873636
0.375258 -0.132363 1.2613
-0.475345 -0.210175 1.0408
-0.0990175 -0.150872 1.13653
-0.194437 0.0075106 0.903328
-0.429805 -0.209075 1.08834
0.439352 -0.332596 1.16231
0.0970881 -0.0403504 1.35889
-0.187627 -0.0305414 0.779386
-0.323827 -0.104182 0.795891
0.978499 -0.996508 3.48727
-0.215997 -0.17762 1.40797
-0.282376 0.0659051 0.769757
0.329279 0.0121245 1.10708
-0.266899 -0.127253 0.885008
-0.185374 -0.0590347 0.856305
-0.297408 -0.130067 0.773285
0.499677 -0.318922 2.10509
-0.271672 0.0354487 0.854334
-0.0679582 -0.26677 1.29819
0.390739 -0.324516 1.19223
0.371064 -0.234054 1.24091
-0.188069 -0.165614 1.2866
0.0160656 -0.426953 1.33093
-0.309282 0.0493444 0.837646
0.105924 -0.117288 1.4182
-0.227176 -0.00105225 0.820707
-0.294301 -0.114897 0.882066
-0.333451 0.0416472 0.81195
-0.193336 -0.0585471 0.877481
-0.249156 -0.0401192 0.843122
-0.329544 -0.0606273 0.792002
-0.284206 -0.108789 0.880991
0.106111 0.06035 0.836905
0.335649 0.0385817 0.937373
-0.0752471 0.0460994 0.779695
-0.25238 0.0289318 0.881437
-0.157741 0.0575765 0.80554
-0.259109 0.0207798 0.90506
-0.0769415 0.0549711 0.808101
-0.15799 0.0575197 0.806027
-0.012564 -0.20106 1.10709
-0.291044 -0.0474025 0.856304
-0.24901 0.0195581 0.939969
-0.0290825 -0.143334 1.09687
-0.288697 -0.0536197 0.861035
-0.277914 -0.139169 0.867412
-0.351746 0.0639977 0.795727
0.898298 -0.650752 3.64299
0.852627 -1.00007 3.42531
0.887607 -0.652405 3.61331
-0.0984975 -0.014968 1.15679
0.173947 0.0438061 0.849313
-0.294229 -0.121289 0.901431
0.237093 -0.0788974 1.58619
0.0780921 0.0396655 0.929566
0.883768 -0.84423 2.7162
0.0503947 -0.0222763 1.23955
-0.267973 -0.07857 0.87744
0.403505 0.0503383 1.04685
1.32809 -0.941697 4.10207
-0.223365 0.0516468 0.820857
-0.133856 -0.0953701 1.3135
-0.261468 -0.0433301 0.866486
0.38296 -0.337906 1.19302
-0.163445 -0.0240756 0.819748
0.126357 -0.351639 1.31584
-0.144628 -0.0388821 1.29796
-0.189574 -0.0286907 0.792134
-0.387843 -0.326402 1.13647
-0.250772 0.0270608 0.939793
-0.232484 -0.0134184 0.913983
0.474772 -0.422313 2.49354
-0.283331 -0.340336 1.12248
0.340938 -0.319319 1.88812
0.574811 -0.884494 2.88025
0.806251 -0.829368 2.6328
-0.289607 -0.137554 0.861306
-0.440436 -0.309062 1.18475
1.04763 -0.90817 3.10841
-0.0135007 -0.18275 1.10659
-0.398679 -0.234782 1.136
0.197805 -0.266218 1.4323
-0.285646 -0.073112 0.859154
-0.290864 0.063889 0.772077
0.161528 0.0673188 0.772421
-0.190531 -0.0904121 0.901993
0.0657393 0.0391869 0.927155
-0.262544 -0.0729771 1.01348
0.268034 0.00574768 1.15798
-0.296814 -0.115875 0.887927
-0.181236 0.0338117 0.989349
-0.30286 -0.0683127 0.87992
-0.270912 -0.155831 0.879047
-0.29416 -0.140754 0.854903
-0.223045 0.0565432 0.816361
-0.301751 -0.107239 0.88434
-0.414362 -0.242256 1.1422
-0.290765 -0.106344 0.861743
-0.466024 -0.217848 1.10993
-0.251233 0.054883 0.825134
-0.280178 -0.0755901 0.877345
-0.312231 -0.130136 0.817392
-0.298142 -0.103027 0.83992
-0.293383 -0.0589053 0.864162
0.0298323 0.0446094 0.845122
0.463905 -0.303879 1.15648
-0.0535155 0.0263332 0.991173
0.381168 -0.215609 1.20372
-0.257709 -0.0416222 0.838696
-0.397637 -0.32562 1.16277
-0.295291 -0.09342 0.894052
-0.285184 -0.336136 1.13248
-0.0875875 0.0305026 0.972336
-0.285134 -0.0692806 0.868526
-0.248041 -0.0446098 0.83737
-0.203333 -0.0137979 0.769063
-0.161324 -0.0283015 0.849111
0.0643836 0.0413427 0.929005
-0.323068 -0.0522759 0.921313
-0.309937 -0.237895 1.12404
-0.078528 0.0622039 0.833315
-0.315644 -0.338219 1.2306
-0.273953 -0.151336 0.885586
-0.253098 -0.090507 1.09056
-0.37929 -0.212359 1.13065
-0.0728335 0.026009 1.00376
-0.0162731 0.000650037 1.11591
-0.265903 -0.0722943 0.892362
-0.0846031 0.0340585 1.00486
-0.0801533 0.0336711 1.02674
-0.319174 -0.31963 1.25051
-0.0175904 -0.00078043 1.12139
-0.262205 -0.153017 0.860464
0.308058 0.0123129 1.06674
-0.277663 -0.157684 0.889439
1.07933 -0.928733 3.17231
-0.237294 0.00594043 0.910036
-0.341019 -0.326616 1.32425
-0.234889 -0.118722 0.826121
0.417289 -0.336232 1.18041
-0.274598 -0.173241 0.970317
-0.276852 -0.0536942 1.06607
-0.340253 -0.0220888 0.860378
-0.263794 -0.370382 1.20177
0.634502 -0.884584 2.79623
0.710606 -0.859532 3.21573
-0.144793 -0.104452 1.30881
-0.268843 -0.0771508 0.878939
-0.177104 -0.0555935 0.860323
-0.164896 -0.0707173 1.38899
-0.22885 -0.168098 1.27721
0.261066 -0.105948 1.62747
-0.181359 -0.186117 1.47149
0.527754 -0.719165 2.70469
-0.287885 -0.109024 0.889596
-0.221228 0.053147 0.805182
-0.249211 -0.00251954 0.94709
-0.275407 -0.156786 0.911731
-0.283932 0.00862425 1.03152
-0.265459 0.0627172 0.845088
-0.225927 0.0557456 0.81502
0.346709 0.00537732 1.13883
-0.155361 -0.0785283 0.844667
0.140368 0.0475396 0.900029
-0.285401 -0.120216 0.885855
-0.295762 -0.0594091 0.870097
-0.242728 -0.15807 0.895239
-0.302502 0.0479486 0.932312
-0.300401 -0.138866 0.877626
-0.185259 -0.0915395 0.908819
0.284258 -0.206293 1.64417
-0.111971 -0.00762263 1.17224
-0.0210772 -0.0057834 1.10721
-0.412488 -0.203841 1.13733
-0.2259 -0.145517 0.979385
0.57405 -0.677385 2.03287
-0.301216 -0.0314729 0.860544
-0.394414 -0.19799 1.10009
0.177939 -0.445851 1.42592
-0.216403 0.0487729 0.805797
-0.290562 -0.139068 0.849272
0.156281 0.0466144 0.882288
0.461197 -0.295726 1.16586
-0.268392 -0.145518 0.890294
-0.242752 -0.120249 0.836112
-0.168412 -0.0348327 0.834732
-0.187851 -0.125669 1.52609
0.891572 -0.75932 3.59526
-0.327998 -0.290097 1.28202
0.523216 -0.32377 1.11651
-0.219195 -0.0523745 1.45066
0.606267 -0.550092 3.07211
0.515201 -0.292935 1.13736
0.505403 -0.284372 1.1514
-0.0965783 -0.241799 1.29326
0.307525 -0.187842 1.70093
0.279188 -0.207141 1.62927
-0.0978634 -0.243579 1.29281
0.468643 -0.31806 1.15518
0.523823 -0.312664 1.12785
0.563807 -0.207349 1.12868
0.568632 -0.237699 1.12632
0.532321 -0.327144 1.1246
-0.192891 0.0251703 0.904692
0.701249 -0.821069 2.42761
0.306617 0.0553422 0.873041
-0.0922869 -0.0124611 1.14684
-0.00376104 0.0300071 0.956734
-0.157308 -0.0828288 0.84792
0.51281 -0.28358 1.13612
-0.230114 -0.135329 1.02441
0.96808 -0.391778 3.189
-0.204351 0.0138427 0.938226
0.0553382 0.0379117 0.933316
-0.162604 -0.00739025 0.844371
-0.178449 -0.0908243 0.893435
-0.0985236 -0.0175779 1.13675
-0.208222 0.0120036 0.923228
-0.162695 -0.00682223 0.843519
-0.203928 -0.0764192 0.910159
0.442712 -0.283142 1.17195
-0.143628 -0.0699067 0.818771
-0.124968 -0.0519509 1.23506
0.403361 -0.317412 1.18793
0.839145 -0.82886 2.621
-0.0572182 0.0252708 0.989629
0.0401284 0.0155372 1.01221
0.110714 0.0312212 0.999896
1.04218 -0.462519 3.34629
-0.17495 -0.0578482 1.55929
-0.197741 -0.0623602 1.4633
0.514929 -0.295971 1.13625
-0.274824 -0.21805 1.42631
0.579711 -0.196737 1.12196
0.576531 -0.21718 1.12361
0.579852 -0.236783 1.12211
-0.0963105 -0.242268 1.29665
0.594738 0.00643432 1.12282
0.579575 -0.248619 1.11375
0.690587 -0.936948 3.10587
0.37504 -0.109074 1.95516
0.575699 -0.236996 1.12124
-0.177809 -0.18436 1.43744
0.465323 -0.317067 1.15736
0.168434 -0.0996637 1.435
0.557815 -0.252268 1.12658
-0.208048 0.0315649 0.94491
0.245489 -0.241748 1.56897
0.580239 -0.199226 1.12424
-0.202541 -0.0790657 0.917563
-0.165327 -0.0753938 0.85749
-0.183596 0.0372303 0.99681
0.565977 -0.207658 1.12737
-0.203921 0.017033 0.925794
0.507768 -0.288795 1.50083
-0.0260861 0.0154809 1.07015
0.526919 -0.312088 1.13286
-0.156575 -0.0316605 0.832295
0.584641 0.0073075 1.15064
0.514224 -0.29896 1.13436
-0.146608 -0.0352222 1.29412
0.0610876 -0.0270168 1.26089
-0.179167 -0.0839768 0.878077
0.571934 0.00720433 1.20499
0.357956 -0.451289 1.98665
0.71866 -0.806626 2.38924
0.223102 -0.0969917 1.67693
0.26134 0.059133 0.82419
-0.203191 -0.165207 1.36818
0.279496 -0.190234 1.68645
-0.116333 -0.148079 1.15296
-0.202044 -0.0628043 1.48572
0.618347 -0.395236 2.35757
0.148211 -0.235507 1.28905
0.905629 -0.561765 3.31252
0.397186 -0.302075 1.19145
0.142105 -0.228246 1.26994
-0.0474772 -0.239071 1.2778
0.56598 0.00479088 1.1345
0.559515 -0.249691 1.12616
0.511628 -0.302999 1.13098
0.584234 -0.250143 1.11546
0.527371 -0.3136 1.12909
-0.269386 -0.191963 1.33812
-0.170832 0.0343326 0.979621
0.444011 -0.318868 1.16199
-0.0881869 -0.111789 0.699128
0.526975 -0.31298 1.12966
0.588685 -0.237818 1.12717
0.58338 -0.196035 1.12405
0.0763192 0.0100888 1.10045
-0.176595 -0.0908231 0.889192
-0.0831858 0.039131 1.03299
-0.308378 -0.324965 1.22541
-0.299273 -0.15545 1.31721
-0.125563 -0.0524812 1.22199
0.107458 0.0277299 0.990308
-0.219623 -0.180491 1.44487
0.416494 -0.336579 1.17759
0.462997 -0.314156 1.45435
0.385959 -0.287486 1.20801
0.36014 -0.101466 1.82382
0.206155 -0.247485 1.39315
0.332237 -0.252693 1.20292
-0.117722 -0.143241 1.16807
-0.274491 -0.215313 1.43627
0.216547 -0.0968591 1.65495
0.209064 0.0208229 1.03874
-0.31423 -0.242237 1.2502
-0.184883 -0.061771 1.52819
0.156291 -0.206191 1.3587
0.221753 -0.0971182 1.67664
0.352964 -0.102843 1.80272
0.178805 -0.218292 1.43636
-0.299413 -0.151561 1.35423
-0.09823 -0.150371 1.13418
0.651684 -0.777425 2.30799
0.368964 -0.105694 1.846
0.178637 0.0507728 0.879024
0.933172 -0.878693 3.63343
0.617148 -0.761849 2.6756
0.888901 -0.267064 2.7743
0.862823 -0.741931 3.49066
0.378851 -0.337468 1.18723
1.05735 -1.01628 3.62754
0.0898481 -0.151482 1.30778
1.27894 -0.905765 3.98431
0.26626 -0.104756 1.65568
-0.0513041 -0.236246 1.23525
0.204467 -0.103388 1.50168
-0.250766 -0.209644 1.33569
0.570975 -0.228407 1.11176
0.170936 -0.228673 1.26677
0.605619 -0.115866 1.10481
-0.169306 -0.110409 1.36554
0.577432 -0.24843 1.11539
0.412453 0.0411825 0.92598
0.322477 0.0299837 1.07715
0.563153 -0.199467 1.13969
-0.100102 -0.0161089 1.15454
0.614258 0.00952151 1.11987
0.462128 -0.00834616 1.1881
0.52634 0.0130875 1.44644
0.567377 -0.219284 1.11062
0.582813 -0.205171 1.12533
0.465687 0.0585209 0.974645
0.630013 -0.0393333 1.10711
0.501895 -0.31396 1.13621
0.61467 0.00766416 1.12012
0.503827 -0.313107 1.13686
0.608431 -0.178811 1.07795
-0.0263195 0.0158111 1.07195
0.381498 -0.0160671 1.21237
-0.120945 -0.144606 1.18586
0.610667 -0.0871102 1.11784
-0.034217 -0.141667 1.09549
0.242163 0.0389722 0.921078
-0.0146708 -0.00066696 1.10862
-0.260903 -0.0354632 1.38349
0.646909 0.0430684 1.43126
-0.0786022 0.0281198 0.995157
-0.0618743 0.0257781 0.996209
0.226401 -0.0799376 1.54643
0.563775 -0.225988 1.12281
0.0422646 0.0199968 1.02974
0.506158 -0.279739 1.15526
-0.104942 -0.010203 1.17401
-0.162446 -0.247595 1.48435
0.346604 0.00530247 1.13818
0.168957 -0.212807 1.41908
0.571633 -0.216547 1.12393
-0.181942 -0.187194 1.40738
-0.0993499 -0.0164771 1.15066
0.256999 -0.247536 1.61462
0.304193 -0.28774 1.75309
0.248265 -0.187692 1.56567
-0.0282992 -0.00927337 1.11513
0.265535 -0.193332 1.61855
0.312942 -0.116772 1.79272
-0.220685 -0.193432 1.51177
0.324887 -0.193734 1.75794
-0.123478 -0.0531394 1.18701
0.788095 -0.699908 2.13029
0.325056 0.032046 0.967048
0.35982 -0.453329 1.98802
0.509363 -0.00784666 1.1323
0.707069 -0.438291 2.97747
-0.265748 -0.174434 1.37525
0.0770768 -0.25262 1.38109
0.661317 -0.458941 2.6879
0.586619 -0.219501 1.13309
0.656751 -0.409955 2.44133
0.298749 -0.0131673 1.69932
0.469733 -0.29137 1.15777
-0.240183 -0.0416857 1.4551
-0.155868 -0.17666 1.30136
-0.201762 -0.163225 1.3568
0.407972 -0.31857 1.18332
0.469463 0.0135547 1.18986
-0.227024 -0.18552 1.40972
0.453332 0.00847691 1.05119
0.596915 0.0675696 1.13213
0.35529 -0.101197 1.22997
-0.181097 -0.16154 1.11122
-0.161581 -0.177833 1.31061
0.102001 0.00559467 1.20152
-0.064476 -0.15265 1.13591
0.454708 -0.310972 1.15833
-0.0346875 -0.00855581 1.11792
-0.230995 -0.17151 1.29924
0.594612 0.00756356 1.12222
0.308238 0.0157836 1.06688
0.127997 -0.00511426 1.24308
-0.0957941 -0.240176 1.29185
0.311629 0.0164525 1.07144
0.60384 0.0110031 1.20771
0.0364863 0.00360465 1.30386
-0.0490111 -0.155338 1.08379
-0.158626 -0.248687 1.46237
-0.0172244 -0.160617 1.08165
-0.0110907 0.0032201 1.11075
0.289504 0.0352056 1.01782
-0.0142063 -0.171459 1.07588
0.339273 -0.220435 1.18752
-0.0492376 -0.240978 1.29712
0.135202 -0.361068 1.32535
0.49634 -0.328482 1.13863
-0.063676 -0.256021 1.25006
1.04283 -0.286916 2.45007
0.198839 -0.410635 1.46849
0.982814 -0.269635 2.35062
0.237241 -0.0791905 1.58977
0.578633 0.00656575 1.16746
0.24805 -0.249873 1.59277
-0.07206 -0.185518 1.34052
-0.126773 -0.044122 1.21703
0.46671 -0.287591 1.15513
0.221304 -0.240782 1.52258
-0.132556 -0.217946 1.30423
-0.167374 -0.0195304 1.20606
1.22636 -0.317319 3.5576
1.5416 -0.702082 4.07077
0.123969 -0.294338 1.26913
0.942911 -0.324493 2.35262
0.376307 -0.0210655 1.19275
-0.084852 -0.259323 1.29229
0.568092 -0.228696 1.12427
0.886973 -0.862429 2.80032
1.12914 -0.934905 3.20476
1.67474 -0.887402 4.24823
0.402369 -0.301865 1.18571
0.623098 -0.771925 2.89052
0.00615822 0.000642921 1.1287
1.37764 -1.14863 3.85741
0.324648 -0.175369 1.73296
-0.0106186 -0.193828 1.07359
0.607456 -0.130536 1.10453
-0.131243 -0.248631 1.36367
-0.0142022 0.00328266 1.12272
-0.0680279 -0.222425 1.34434
-0.227189 -0.170773 1.28726
-0.028895 -0.143363 1.09907
-0.271999 -0.0315858 1.5019
0.194996 0.013934 1.01457
0.85384 -0.82784 2.71041
0.15133 -0.00428495 1.30797
-0.147829 -0.26525 1.42882
-0.0921353 -0.0118066 1.14348
0.345898 0.0363314 0.96794
0.381531 -0.122261 1.86744
0.0752286 0.00727854 1.0878
0.462346 -0.00758154 1.20046
0.112876 -0.324214 1.34883
0.273106 -0.0999437 1.76441
0.453327 -0.291777 1.17602
0.54531 -0.235193 1.57551
0.0400488 0.0162439 1.01332
-0.311087 -0.0491952 1.71097
0.414562 -0.300291 1.19467
-0.0937372 -0.0099756 1.15611
-0.0969799 -0.149605 1.13019
-0.100208 -0.151204 1.14959
0.378521 -0.143002 1.26555
0.463864 -0.305226 1.15598
0.0419205 0.0203362 1.02555
-0.125342 -0.15211 1.20492
-0.0145661 -0.139235 1.08788
0.173442 -0.216678 1.41443
0.192667 0.0123965 1.01141
-0.0158692 -0.160631 1.09795
0.00902352 -0.00657579 1.12034
-0.161824 -0.190131 1.30323
-0.160321 -0.276807 1.47851
-0.234597 -0.194926 1.401
-0.129122 -0.0439087 1.22411
-0.256243 -0.186977 1.3589
-0.118954 -0.149557 1.17043
0.391234 -0.295003 1.19815
0.0644086 0.00282983 1.08595
0.396042 -0.34381 1.25084
0.422491 -0.28565 1.1959
0.074384 0.00573367 1.08491
-0.163931 -0.168326 1.39925
-0.014144 -0.149228 1.11315
-0.00352805 -0.00300296 1.1269
-0.0891061 -0.015946 1.13348
0.346381 0.0366327 0.968108
-0.161343 -0.277413 1.48477
-0.147404 -0.257651 1.38767
-0.0219728 -0.0149837 1.07879
-0.150024 -0.017936 1.20017
0.359189 0.0410337 0.981367
0.312608 0.0169939 1.07331
-0.0142536 -0.140002 1.09221
0.614051 -0.366463 1.73963
-0.0678607 -0.144795 1.13628
-0.0845224 -0.258068 1.28839
0.854972 -0.836539 2.64372
0.122782 -0.0149728 1.20795
1.35721 -0.92497 4.19762
0.447502 -0.308847 1.16275
0.123517 -0.342938 1.25233
0.464113 -0.325278 1.52292
0.580332 -0.218536 1.12429
0.452051 -0.30402 1.16668
1.05437 -0.915721 3.1269
0.96105 -0.694604 3.73369
0.0906028 -0.192079 1.29757
0.514207 -0.00343649 1.16291
-0.179679 -0.0285766 1.33738
0.093893 -0.00254559 1.15472
0.00658339 0.00338219 1.13404
-0.030731 -0.00453296 1.11988
0.372991 -0.0161904 1.26973
0.551995 0.00257401 1.12441
0.343706 0.00579517 1.13465
0.046481 -0.0361464 1.18369
-0.129009 -0.153527 1.20703
-0.0286422 -0.143168 1.09481
-0.0217989 -0.00280957 1.11628
-0.0962285 -0.0154629 1.15382
0.0124107 -0.0154173 1.13329
-0.0151677 -0.148652 1.10438
-0.0735633 0.00558795 1.16408
-0.0968986 -0.243237 1.30816
0.415023 -0.0502214 1.3328
-0.102871 -0.0100089 1.16084
0.741689 -0.406638 2.10453
-0.0741056 0.00189101 1.1514
0.359448 -0.0967214 1.23846
0.601042 0.00365388 1.17299
0.200588 0.0179122 1.02316
0.474349 -0.319702 1.15791
0.243798 0.0116393 1.1084
-0.0303665 -0.143072 1.10018
-0.134802 -0.0776031 1.24424
0.10837 -0.355451 1.31615
-0.0622578 -0.217526 1.30541
0.463348 -0.105271 1.37602
0.584225 0.010567 1.20806
0.251521 -0.0179429 1.3027
0.393463 -0.298971 1.19247
-0.114559 -0.0040073 1.18448
0.0869818 -0.0424591 1.30925
-0.0733457 0.00230336 1.15087
0.130586 -0.0198181 1.22141
0.577335 0.00836074 1.19776
0.24167 0.0107216 1.10464
0.0927314 -0.00301181 1.15418
0.296589 -0.0854559 1.65741
0.278201 -0.00025326 1.17913
0.0416364 -0.0271535 1.18119
0.031912 -0.0125413 1.20044
-0.140853 -0.157191 1.26721
0.529104 -0.313737 1.12953
-0.160649 -0.189128 1.30443
0.423157 -0.285257 1.19483
0.583426 -0.232359 1.13608
0.393279 -0.0145498 1.23053
-0.123117 -0.0814171 1.18594
-0.162862 -0.280532 1.49143
0.252715 -0.126115 1.62072
0.406094 -0.298305 1.18857
0.0760581 0.00830991 1.0933
0.0474877 0.00606045 1.01689
0.109435 0.00826262 1.21952
0.398925 -0.292419 1.18538
0.40887 -0.303522 1.1863
0.23524 -0.0797451 1.58878
0.683985 -0.437751 1.98421
0.0175409 -0.00878853 1.17517
0.287725 -0.0992191 1.80706
0.509805 -0.159341 2.2931
0.235789 -0.180753 1.53043
0.398915 -0.316895 1.18691
0.404951 -0.317529 1.18721
-0.156473 -0.327574 1.45777
1.00852 -0.498654 2.58597
0.570147 0.00244512 1.14739
0.448349 -0.319702 1.16567
0.779547 -0.69414 2.11703
0.384138 -0.511151 2.04746
0.956534 -0.891281 2.86644
-0.0885477 -0.243807 1.27047
-0.0166462 0.00107177 1.11722
0.891949 -0.842598 3.50963
