VERSION .7
FIELDS x y z
SIZE 4 4 4
TYPE F F F
COUNT 1 1 1
WIDTH 1264
HEIGHT 1
VIEWPOINT 0 0 0 1 0 0 0
POINTS 1264
DATA ascii
-0.0193882 0.00814165 0.802471
0.292795 -0.244571 1.27463
-0.375645 -0.50333 1.28956
-0.483379 -0.222934 1.13172
-0.487509 -0.0781896 0.866023
0.205086 -0.241299 1.19844
-0.551082 -0.0550782 0.831258
-0.836293 -0.265693 1.37092
-0.178128 -0.444392 1.18459
-0.413516 -0.0640356 1.02548
0.630019 -0.0431541 1.13017
0.0750281 0.0575657 0.789557
-1.0563 -0.357828 1.63689
-0.689975 -0.292137 1.26198
-0.488159 0.180797 0.813499
0.351922 0.205757 0.926786
-0.730332 -0.436984 1.3254
-0.298021 0.187238 1.11512
-0.37015 0.180318 0.854072
0.507176 -0.0431569 1.06516
-0.375263 0.178429 0.904582
-0.0592019 0.176675 0.964523
0.0104187 -0.0678154 0.873453
0.24276 -0.0914215 1.07984
0.114634 0.190701 0.778714
-0.578745 0.0401016 0.925526
-0.234846 0.113707 0.908288
-0.741668 0.136729 1.09296
0.417131 0.123822 1.16478
-0.0361349 0.014499 0.610148
-0.537354 -0.137596 1.18587
-0.0933826 0.189872 0.761317
-0.0739692 0.17978 0.78464
0.110813 -0.269579 1.55118
-0.0896951 -0.00681519 0.669068
0.238523 0.163613 1.25758
-0.328176 0.0431967 0.743893
0.361663 0.155826 1.07492
0.131692 -0.154978 0.918652
-0.414292 -0.0839792 0.965082
-0.908759 -0.236522 1.50416
-0.405581 -0.0423273 0.795509
0.00303574 -0.236801 1.35659
-0.68079 0.0477166 1.02691
-0.713998 0.172685 1.02866
0.597911 -0.0343169 0.959094
0.398578 -0.194133 1.13744
0.634534 -0.0433995 1.13731
0.501655 -0.3252 0.975551
0.621312 0.193208 0.925413
-0.0777279 0.15128 0.622661
-0.533766 -0.0332534 0.796407
-0.539483 -0.0338158 0.804983
-0.405305 0.233744 0.66942
-0.384623 0.187215 0.884461
0.158196 0.236101 0.684241
0.294775 0.201248 0.735024
-0.555194 -0.0467906 0.823594
0.348516 0.215723 0.897174
-0.493828 -0.0146753 0.786664
-0.0132889 0.0711554 0.62823
-0.106176 0.19943 0.553405
-0.543354 -0.0438004 0.80532
0.52636 -0.0944693 1.01693
-0.435988 0.182911 0.817098
0.452554 0.225732 0.768269
-0.539224 0.194602 0.90935
-0.0146732 0.222967 0.716029
0.240766 0.127599 0.928497
0.463969 -0.0541248 0.950998
-0.0622772 -0.0474731 0.269413
-0.557444 0.0543275 0.89588
-0.0145224 0.212271 0.683946
-0.493201 0.182829 0.82111
0.615378 0.191859 0.930391
0.464109 0.252607 0.738082
0.128247 0.214805 0.879141
0.680869 -0.164271 0.995172
-0.678932 0.150252 0.971445
0.613021 0.243085 0.900202
0.619281 -0.059225 1.08846
0.567691 -0.0707039 1.06307
0.525914 -0.0887588 0.998961
0.324048 0.129855 1.01585
-0.25756 0.229917 0.616602
-0.504512 0.186568 0.844569
0.575512 -0.117388 1.09922
0.599952 0.184614 0.890645
-0.443731 0.184712 0.829559
-0.081118 -0.0780047 0.303732
-0.412738 -0.0308791 0.740833
-0.550205 -0.0330187 0.809716
-0.531777 -0.0496619 0.797163
0.0634835 0.00179101 0.555065
-0.099765 0.202667 0.677009
0.405426 0.118525 0.97224
-0.553216 0.136329 0.899063
-0.0992229 0.198678 0.803441
0.455437 0.104147 1.06139
0.041119 0.224283 0.810526
-0.221641 0.14316 0.662552
-0.246865 0.164256 0.7178
0.285864 0.174895 0.74662
0.571015 -0.0984095 1.08412
0.325518 0.140748 0.981432
-0.349449 0.166403 0.824498
-0.579927 -0.0574963 0.873717
-0.0792379 0.216945 0.685176
-0.154266 0.135547 0.559018
0.327275 0.137212 0.981495
0.414092 0.0667544 1.0433
0.597162 -0.056854 1.05164
-0.0105301 0.197331 0.6402
-0.415056 0.173561 0.776974
0.282355 0.204024 0.690969
-0.394753 0.228838 0.654295
-0.203558 0.179527 0.552742
-0.335199 0.15579 0.815587
0.533364 -0.0940052 1.01309
-0.488544 0.179261 0.813053
-0.397624 -0.0523564 0.74096
0.239985 0.127166 0.922825
0.0152443 0.0617641 0.61941
0.528315 0.227571 0.979755
-0.0171115 -0.0336508 0.151567
0.32537 0.141079 0.980485
0.261794 0.235175 0.649276
0.0891889 0.151333 0.768815
-0.517323 -0.0171961 0.83054
-0.0866071 0.239885 0.754684
-0.0992076 0.187595 0.541769
0.58953 -0.0411444 1.05603
0.184169 0.21058 0.810357
0.125533 0.212247 0.872197
0.418257 0.0668616 1.05318
0.142456 0.21291 0.623045
0.113193 0.189589 0.790339
-0.572092 0.13278 0.839658
0.104775 0.176918 0.739682
-0.013213 0.0664281 0.620978
0.469339 -0.0535051 0.96645
0.104843 0.17404 0.836227
0.565873 -0.103136 1.07035
-0.53894 -0.0186288 0.864475
-0.556422 -0.0162884 0.88098
-0.407407 -0.045954 0.755517
0.312997 0.174151 0.841682
0.31871 0.247039 0.745394
-0.434383 -0.0466928 0.779315
0.305311 0.2155 0.750724
-0.218682 0.139835 0.653446
0.0990891 0.163427 0.822461
-0.540159 0.12899 0.87461
-0.460918 0.169274 0.777686
0.557562 0.155889 0.884319
-0.00436366 0.150257 0.789855
-0.0200796 0.134013 0.708574
-0.0187391 0.121293 0.736669
-0.0891685 -0.0298931 0.311164
-0.536059 -0.0540216 0.80903
-0.242533 0.215231 0.650589
-0.437452 0.180322 0.818238
-0.556059 0.0451191 0.886958
0.020559 0.183794 0.584051
-0.0905177 0.180994 0.738755
-0.0129494 0.219444 0.718077
0.144813 0.215369 0.634411
0.00200526 0.0591605 0.556828
0.328828 0.13949 0.999797
0.303821 0.124413 0.96683
0.0975165 0.164482 0.826169
0.0189774 0.106569 0.575631
0.525393 -0.0707319 0.978003
-0.0933678 -0.0304617 0.305215
0.217299 0.069351 0.679168
-0.569252 -0.0364038 0.855952
-0.577466 -0.0563211 0.86893
-0.570981 0.136144 0.924151
-0.257736 0.171882 0.753689
0.279518 -0.0452251 0.819315
0.0719743 -0.0455263 0.534096
0.688967 -0.0432074 1.10128
0.224488 0.143515 0.904561
0.348765 0.24169 0.858767
0.351694 0.0996767 1.00033
-0.0869985 0.240783 0.75489
0.0468836 0.227729 0.8542
-0.0969629 0.195155 0.788255
0.28924 0.204606 0.709734
0.551742 -0.075158 1.02414
-0.302463 -0.0468541 0.655585
-0.576357 0.104885 0.921211
0.100681 0.170528 0.847269
0.224035 0.118537 0.85435
-0.459019 -0.0112287 0.742059
0.006191 0.00673095 0.39654
-0.436658 -0.0486108 0.791332
-0.536165 0.126366 0.865447
-0.0128786 0.0592332 0.605948
0.52765 -0.0969199 0.99982
-0.134774 0.117001 0.514925
-0.23616 0.157759 0.69238
0.303618 0.127934 0.926116
0.274948 0.115744 0.886764
0.202848 0.122924 0.819986
-0.289265 0.100964 0.719945
-0.450313 0.101886 0.729401
-0.097542 0.191152 0.792393
0.0187148 0.11104 0.615252
0.110423 0.184741 0.785743
0.0947382 0.101976 0.681972
0.139839 0.103644 0.838835
-0.0118302 0.171443 0.582407
-0.441919 0.155957 0.744596
0.534001 0.116771 0.780066
-0.0862516 0.17127 0.703108
-0.298441 0.13806 0.729207
-0.0141972 -0.02756 0.103614
0.040369 0.0286222 0.469867
0.241877 -0.061592 0.758635
0.112024 0.101121 0.768824
0.0277347 0.142705 0.729164
0.236786 -0.0597443 0.738648
-0.0322287 -0.0215994 0.119504
0.317935 0.203734 0.814796
-0.00925006 0.206877 0.669159
-0.269582 0.241786 0.64511
0.247128 0.156394 0.960521
0.486772 0.136817 0.776333
-0.66897 0.165051 0.990027
0.297068 0.183188 0.774801
-0.523566 0.035066 0.784932
0.0019539 0.0673958 0.600996
-0.360598 0.170773 0.855263
0.335634 0.217063 0.857904
-0.368405 0.1743 0.891682
0.542636 -0.0592995 1.10889
0.150935 0.225421 0.657774
0.556693 0.220015 0.81456
0.306603 0.197016 0.786499
-0.0122736 0.21054 0.683338
-0.334492 0.127099 0.825798
0.0230256 0.209663 0.656003
-0.300793 -0.0343332 0.704116
-0.671854 0.165806 0.99435
-0.0141699 0.0719979 0.654675
0.337416 -0.315207 0.939708
0.443712 0.132464 0.691633
-0.545749 -0.0122805 0.866337
-0.407326 -0.000304673 0.803359
-0.0123266 0.062188 0.568416
0.606496 0.12279 1.20683
0.172819 0.205212 0.766728
-0.508364 0.205055 0.834955
-0.550245 0.134878 0.894053
0.288052 0.166896 0.769995
-0.675052 0.150596 0.966797
-0.449065 -0.0322649 0.808694
-0.433216 -0.0350486 0.755175
-0.384156 -0.0265021 0.576185
-0.476502 -0.0419205 0.825171
0.0319487 0.163041 0.841576
0.321055 0.244425 0.758093
0.251091 0.159398 0.995259
-0.00851579 0.062452 0.653802
-0.0366953 -0.0722982 0.247072
-0.418101 -0.0310949 0.755124
-0.3359 0.157752 0.795629
0.257598 -0.28911 0.876749
-0.306913 0.0892974 0.763923
0.0329352 0.118833 0.702555
-0.061995 0.0537205 0.592725
0.537812 0.200532 1.0656
0.234747 0.27311 1.02561
-0.0146928 0.241631 0.784695
-0.351885 0.165978 0.835149
-0.488268 -0.0137761 0.765271
0.355972 0.230422 0.907914
0.154495 0.0934476 0.687384
0.246613 0.155374 0.978203
0.0443003 0.149659 0.847877
-0.478479 -0.0576874 0.830145
0.482828 0.177816 0.952844
0.336926 0.142199 1.02319
-0.0156095 0.0807038 0.648497
-0.606362 0.110598 0.967357
0.000793127 0.0753032 0.650326
-0.0825173 0.142794 0.777067
-0.00161487 0.148858 0.771968
-0.358433 0.167094 0.848212
0.302902 0.215522 0.744374
0.0343868 0.180909 0.908232
-0.421742 -0.0535734 0.79236
0.0157139 0.0674701 0.666208
-0.619074 0.061339 0.988102
0.654562 -0.120165 1.24497
-0.11061 0.159274 0.871595
-0.0160862 -0.0283014 0.118643
-0.364899 0.134997 0.897563
-0.358692 0.218855 0.62111
-0.0233088 0.0642663 0.664997
0.372673 0.0351925 1.09877
0.399023 -0.371189 1.10451
0.0368566 0.165208 0.84852
0.311021 -0.078685 0.990605
-0.443943 0.185147 0.830397
-0.600006 0.0497656 0.95393
0.312746 0.221719 0.767542
-0.266902 -0.0422521 0.648998
-0.367965 0.176248 0.824753
0.0790201 0.0613978 0.737719
0.44422 0.108975 1.21695
-0.524857 0.127741 0.855464
-0.00686099 0.15348 0.803953
-0.106764 0.0996249 0.685632
0.164368 0.13035 1.03255
-0.188471 0.167583 0.784692
-0.529014 0.130642 0.861309
-0.414514 0.120535 0.771796
0.104386 0.152267 0.828721
0.218676 0.033129 0.992024
0.555653 -0.0930091 1.0528
0.0838694 0.0644992 0.772941
-0.442211 -0.0556077 0.829524
0.423583 -0.038751 0.892673
-0.197688 0.177187 0.827816
-0.382156 0.182559 0.855838
-0.420319 -0.0684825 0.808111
-0.491398 -0.0625174 0.864872
-0.332596 0.15729 0.747522
0.337841 0.145504 1.00781
-0.450454 -0.0446114 0.809618
0.549931 0.140635 0.923585
0.386402 0.0968716 1.0617
-0.744823 0.159477 1.07242
-0.207455 -0.106942 0.556586
0.521289 -0.0976627 1.00666
-0.663813 0.147137 0.94987
0.480394 0.229079 0.835967
0.107824 0.189996 0.8056
-0.471171 0.280203 0.736988
0.371864 0.110681 1.04775
0.448132 -0.0505971 0.923586
-0.0344976 -0.0721382 0.257551
-0.0598977 0.06403 0.526776
-0.354098 0.214781 0.612033
-0.317619 0.0584784 0.7808
-0.025079 0.192567 1.00251
-0.424218 -0.0547934 0.796093
0.720294 0.163215 1.15492
0.15159 0.120231 0.952332
-0.302649 -0.0235414 0.569473
0.278422 0.197526 0.685072
0.24776 0.288794 1.08192
-0.697429 0.167528 1.02478
-0.431209 -0.0330653 0.74247
-0.314994 0.0574456 0.773141
-0.0202763 0.165654 0.868881
-0.707571 0.130316 1.04248
0.0936216 0.00380897 0.76032
-0.17386 0.164258 0.948386
-0.400333 -0.065322 0.782465
-0.260999 -0.0269077 0.644933
0.47078 0.109906 1.10092
0.338207 -0.314904 0.941366
0.54342 -0.0436437 1.09089
-0.402663 -0.0428142 0.786481
-0.00268271 0.0600433 0.642451
-0.362052 -0.0516471 0.76029
0.101837 -0.0589613 0.729126
0.462056 0.107581 1.07808
-0.0746207 0.0675635 0.710323
0.160874 -0.0614376 0.713417
0.374573 0.0918004 1.03015
-0.399824 -0.0320867 0.692122
0.235687 0.124547 0.901257
-0.616089 0.149858 0.997817
0.410404 0.133406 1.22678
-0.59945 0.130445 0.890307
-0.400744 -0.00148008 0.790369
0.36159 -0.0540935 1.04038
-0.0182683 0.0633941 0.67805
-0.335439 0.0588671 0.817577
0.228722 0.136929 1.0118
-0.0874283 0.141708 0.777037
0.14219 0.133753 0.962689
-0.381956 -0.0545021 0.802427
0.393108 0.0966949 1.0817
0.155731 0.123033 0.976837
-0.00324878 0.169259 0.867639
-0.0723826 0.0665863 0.703283
0.156641 0.124032 0.967019
0.335957 -0.313936 0.93762
-0.408091 -0.0785236 0.84688
-0.391098 -0.0267999 0.585906
0.252896 0.151032 1.11033
-0.0190229 0.100173 0.656354
-0.0257585 0.304541 1.12626
-0.235715 0.145987 0.886101
-0.220425 0.121831 0.806553
-0.355127 0.166983 0.796069
0.631773 -0.056825 1.05406
-0.0041914 -0.0215239 0.243982
0.0957054 -0.0572357 0.688258
0.031677 0.0238935 0.607423
-0.376167 0.140088 0.925636
-0.607297 0.0773453 0.927596
0.121443 0.124913 0.846712
0.434671 0.100022 1.01266
0.301224 0.236642 0.703765
0.0279996 0.15544 0.801833
-0.0182957 -0.0426307 0.15988
-0.427312 -0.000311935 0.840987
0.207169 -0.176775 0.887466
-0.0180789 0.060371 0.647231
-0.20939 0.185561 0.75797
-0.690666 0.15217 1.02061
-0.416353 -0.0501824 0.803145
-0.337509 -0.0565321 0.721683
-0.00205863 0.141821 0.728481
-0.313243 -0.0633127 0.717898
-0.411681 -0.000154136 0.808141
-0.555633 0.197657 0.929424
-0.0444782 -0.122053 0.391374
0.475308 -0.36562 1.0114
0.353802 -0.327992 0.984597
0.367184 0.121255 1.10199
-0.590219 0.0427357 0.923427
0.103601 0.17957 0.767084
0.31683 0.127336 0.995986
-0.443435 -0.0342688 0.763401
0.0887527 0.00402678 0.737741
0.111514 0.00123662 0.809526
-0.00673797 0.155374 0.81418
0.03268 0.0295227 0.684331
-0.683041 0.125653 1.00231
0.180108 0.0269491 0.905223
0.500682 -0.0554893 1.02789
-0.0809047 0.086118 0.713295
0.0814935 0.00544973 0.686967
0.473407 0.261007 0.74352
0.369138 -0.30672 1.03924
-0.395422 -0.0262428 0.593696
0.104315 -0.213062 0.735471
0.342487 0.191748 0.918162
0.379574 -0.185645 1.09178
0.00474458 0.0654771 0.632876
0.180616 0.163142 1.1399
0.112318 -0.06877 0.797745
0.362367 -0.302266 1.02052
-0.125943 0.112474 0.781308
0.310812 0.243625 0.723685
-0.00685456 0.156132 0.818523
-0.324621 0.213954 0.952716
0.514204 0.245045 0.89468
0.0680269 0.0448754 0.694809
0.0599231 -0.0498518 0.494755
0.0872613 0.00667071 0.736967
-0.0725086 0.0502831 0.664068
-0.00736532 0.193865 0.788131
-0.266777 0.238091 0.837442
0.0318893 0.00900674 0.670036
0.154812 0.0570357 0.962263
0.137787 0.124387 0.906062
-0.35341 0.130263 0.869394
0.283013 0.151983 1.0561
0.623214 -0.0503723 1.04605
0.336529 -0.285634 0.973958
0.245244 0.147687 1.08711
0.1231 0.179061 0.995355
-0.0188092 0.0937112 0.61952
-0.015746 0.0703544 0.670241
-0.111897 0.148347 0.82116
0.0194023 0.0239359 0.666205
-0.0912968 0.183932 0.611871
0.0986841 0.162939 0.685163
-0.0726761 0.0348948 0.608514
-0.289916 -0.0567052 0.700586
0.185203 0.0449258 0.974818
-0.420353 0.000934499 0.829081
0.506433 -0.0355161 0.907838
0.5049 0.241029 0.878822
-0.60984 0.0494247 0.970285
0.460087 0.105902 1.07012
0.257897 0.153738 1.13285
-0.550844 0.202107 0.913023
-0.23632 0.136133 0.870603
-0.00552891 -0.0255198 0.292649
-0.0260171 0.0877425 0.701616
0.330611 0.132482 1.03865
0.0279234 0.00718736 0.575746
0.0996045 -0.12173 0.742182
-0.686351 0.1516 1.04534
-0.0942353 0.160178 0.863809
0.0834446 0.0113259 0.73081
0.143245 0.0496071 0.878274
0.27527 0.198841 0.671363
-0.347835 -0.0145014 0.763999
-0.396929 0.00064718 0.782683
0.37968 -0.316021 1.07422
-0.0703353 0.0605657 0.673934
-0.21965 0.120838 0.801154
0.21093 -0.179308 0.904744
-0.372063 0.13927 0.917913
-0.0120085 0.0632453 0.660105
-0.037331 -0.0729023 0.258657
0.203758 0.131139 0.807006
-0.0555477 0.0173656 0.505901
-0.0731653 0.0792771 0.651686
0.387133 0.11474 1.09445
0.0751607 0.0403759 0.739573
0.18501 -0.0679623 0.81354
0.498193 -0.0549524 1.01788
0.0297708 0.00982932 0.652434
0.142255 0.0353701 0.780703
0.570749 -0.0400415 1.02313
-0.0223348 -0.0410184 0.15236
0.239 0.148898 1.08166
0.427379 0.114599 1.20575
0.582998 -0.0912242 1.10362
-0.246903 0.142461 0.908623
-0.324094 -0.0512351 0.812551
-0.644888 -0.0634805 0.970574
-0.0703781 0.0613097 0.676899
-0.114894 0.235006 0.940145
0.358088 0.057589 1.21143
0.299376 0.0450724 1.10832
0.0815782 -0.0690193 0.668472
0.0900937 -0.0587016 0.660783
-0.118246 0.234592 0.716983
-0.0254872 0.286566 1.05815
0.389083 0.128002 1.16818
0.258978 0.137573 0.992067
-0.273094 0.184384 0.790673
0.081479 0.142406 0.607013
0.389576 -0.189321 1.12071
-0.0155452 0.106295 0.647684
-0.429046 -0.0388498 0.719182
-0.348635 -0.0359495 0.788023
0.170516 0.203223 0.755018
0.177274 0.210043 0.779479
0.0770472 0.0606589 0.723997
-0.505303 -0.0837264 0.919145
0.202837 -0.0775228 0.911604
-0.0765968 0.17533 0.702341
-0.117893 0.163421 0.896362
0.0374577 0.168731 0.863784
-0.459866 -0.0371894 0.802464
-0.500941 -0.0816651 0.906658
0.419904 0.204654 0.722756
-0.505089 0.181224 0.84752
0.110992 0.116587 0.803071
-0.309106 -0.020941 0.759993
0.222175 0.0524066 0.942299
-0.375026 -0.0511407 0.781038
-0.739752 0.135177 1.08627
-0.087263 0.0923208 0.776031
-0.474853 -0.0387549 0.832667
0.590811 -0.0574523 0.948436
0.231994 0.144673 0.958776
0.608873 0.154928 1.02305
0.314998 0.140704 1.00348
0.450596 0.0924989 0.914023
0.42816 0.0423982 1.26876
0.039389 0.165525 0.857591
-0.126955 0.11299 0.774834
0.200057 0.0490483 1.04292
-0.112462 0.146599 0.811001
0.203022 0.15763 1.23611
-0.491006 -0.0795682 0.872917
0.0150956 0.0618223 0.622199
-0.129716 -0.0570114 0.461533
-0.312116 -0.0587092 0.75201
-0.344009 0.121713 0.849904
0.38058 -0.210721 1.10521
-0.301645 -0.0325579 0.691642
-0.49471 -0.0767232 0.936367
-0.0221563 0.156532 0.822374
0.0752569 0.129805 0.555269
0.555627 0.129 1.29601
0.366239 0.0622505 1.08656
-0.315381 -0.0503362 0.762831
-0.214564 0.191952 0.807069
-0.616944 0.0513161 0.979988
0.347871 -0.353189 1.0591
0.442483 0.0919013 0.89822
-0.053228 0.0208809 0.669272
-0.0739041 0.0328214 0.636148
0.610907 0.334754 0.955405
-0.270574 0.182755 0.783545
-0.496169 -0.0820668 0.902592
0.428817 -0.411452 1.18291
0.0162099 -0.00355408 0.656605
0.0874567 0.0709188 0.81318
-0.0242853 0.171241 0.888491
0.524641 -0.109206 0.939805
0.0585751 0.040896 0.681862
-0.2265 0.201296 0.608924
-0.710059 0.0925347 1.09016
-0.376719 -0.0557165 0.812107
0.210063 -0.178492 0.916368
0.0832227 0.0516976 0.826194
0.226159 0.0514205 0.954942
0.491328 -0.315335 1.05555
0.471718 0.177491 0.931638
0.0208028 0.0132591 0.718732
0.151796 0.0547476 0.944238
-0.704693 0.163747 1.01139
-0.450911 -0.0722887 0.803594
-0.142318 0.127134 0.874157
0.0216247 0.0134159 0.734654
0.0809574 0.141066 0.623248
0.411905 0.132974 1.23454
0.426729 0.0673991 1.07566
-0.0954065 0.152073 0.840715
-0.775631 -0.0183015 1.21593
-0.0986783 0.161936 0.872254
0.484298 -0.0412519 1.01826
0.490654 -0.0419567 1.03154
0.33363 -0.372033 1.12782
-0.0765585 0.0652127 0.731347
0.441391 0.090429 0.895251
0.416068 -0.345953 1.16817
-0.389849 0.117241 0.95552
-0.604107 -0.016027 0.956457
-0.0207106 0.105055 0.671733
-0.194439 -0.0579069 0.60002
0.0118366 0.234517 0.636485
0.0380934 0.187213 0.707278
-0.0197569 0.166286 0.872602
0.416205 -0.198912 1.19646
-0.0489529 0.0169391 0.622744
-0.52844 -0.0806752 0.937836
0.099177 -0.0702536 0.728489
-0.302663 -0.0484104 0.759728
0.0183845 0.0122796 0.632179
0.0406946 0.147995 0.765734
0.598691 0.261203 1.09694
-0.840079 -0.0587052 1.207
0.101379 0.14804 0.789755
0.323891 0.130544 1.01348
-0.54692 -0.0665119 0.953025
-0.05679 0.0183403 0.551113
0.106268 0.175974 0.878801
-0.1591 -0.0424783 0.496291
0.26702 0.172213 1.05534
0.422412 0.186427 0.77578
-0.351691 -0.0557001 0.847055
0.355071 0.149782 1.07162
-0.745926 0.108382 1.12791
0.318305 -0.0753166 1.13211
-0.331738 0.1008 0.816382
-0.401455 0.120911 0.986174
0.563858 0.20594 1.13399
-0.0542942 0.0209022 0.637954
0.34869 -0.0868354 1.10916
-0.532719 -0.0443986 0.896758
-0.118052 0.167777 0.912169
0.0920332 0.155454 0.710244
0.378549 -0.383532 1.15002
-0.257975 0.147976 0.947616
-0.497635 0.182823 0.826046
0.13184 -0.0494653 0.797322
-0.413324 -0.03565 0.694723
0.455847 0.200035 0.83616
-0.176822 -0.223789 0.657894
0.160789 -0.0597054 0.958808
0.351047 -0.356685 1.07026
-0.65516 -0.0436516 0.967355
-0.125531 0.170422 0.934745
-0.473074 -0.0134661 0.748701
0.0137622 0.0240611 0.723331
0.215576 0.163411 0.972531
-0.531106 0.121268 0.860409
0.484131 -0.0569268 0.998867
0.254643 0.152012 1.11785
-0.250871 0.121155 0.961078
0.41549 0.192697 0.74542
0.0175621 -0.00238501 0.682427
-0.326791 -0.0373067 0.763755
-0.386379 0.10402 0.969969
-0.119227 0.171646 0.935314
0.465872 0.19974 0.868805
-0.0204268 0.170939 0.861269
-0.369272 -0.057625 0.896107
0.173022 -0.300414 0.936575
-0.335382 0.178654 0.981345
-0.693293 0.102126 1.05374
0.408895 0.117742 1.15027
-0.0628527 0.140026 0.952472
-0.0716737 0.0498601 0.658315
-0.0784784 0.054354 0.708847
0.0301985 0.132193 0.849491
-0.301574 -0.0378305 0.738677
0.188056 0.142919 1.12784
0.119053 -0.264692 0.826015
-0.0797549 0.0561032 0.731635
-0.0767697 0.0531692 0.693395
-0.0203005 -0.0357634 0.149258
-0.000551606 0.0207896 0.704025
0.0459926 0.175291 0.897882
0.434332 0.191648 0.797621
-0.273669 -0.141965 0.733729
0.0177563 -0.00147936 0.665047
0.151281 0.0515171 1.01129
-0.226208 -0.0379723 0.583112
-0.00105942 0.0208128 0.711483
0.134029 -0.0499903 0.811199
-0.231764 0.133902 0.858952
-0.391225 -0.189103 0.918721
0.246314 0.0601287 1.04088
-0.641169 0.140484 0.949946
0.623166 -0.0522669 1.01759
0.0417858 0.17297 0.917746
-0.0233224 0.17904 0.944173
0.560474 -0.0405572 1.02603
0.307633 0.176361 0.820441
-0.886415 -0.282196 1.24289
-0.0261961 -0.000651038 0.495274
0.270268 -0.234288 1.10867
0.370571 0.0626144 1.10453
0.370426 -0.295126 1.00058
0.304039 0.175581 0.812559
-0.0128664 0.203476 0.66045
-0.815561 -0.181185 1.19843
-0.312142 0.281766 0.990776
0.0310267 0.138466 0.878091
0.0404317 0.029433 0.727245
0.0638374 0.0588974 0.666877
0.530212 -0.0732282 0.985223
-0.186837 -0.0362687 0.625422
0.217532 -0.0832425 0.974429
-0.29181 0.173087 0.834784
0.113949 -0.0872521 0.841883
-0.747596 -0.323581 1.16372
0.539895 -0.0441949 1.04442
-0.637603 -0.0516145 0.94273
-0.584583 -0.35111 1.02398
-0.975528 -0.309871 1.36894
-0.107864 0.0739553 0.873013
0.00133525 0.0637839 0.578072
0.0781346 0.0616735 0.723762
0.127735 -0.182367 0.907957
-0.0236836 0.0754357 0.632715
0.345695 0.228663 0.868681
-0.0579067 0.132455 0.903483
-0.0276643 0.061155 0.594224
0.507491 -0.103804 0.968525
0.421757 -0.349252 1.17912
-0.831131 -0.407668 1.26518
0.0784933 0.174046 0.893301
-0.738203 0.0807649 1.12066
0.0226185 0.0116555 0.71337
-0.609075 0.131364 0.913667
-0.566307 0.037584 0.809651
-0.681415 -0.154645 1.21556
-0.527671 -0.0498879 0.790394
-0.701402 -0.0566415 1.03086
0.642984 -0.101926 1.20144
0.401494 0.0799085 0.928698
-0.0180147 0.0990304 0.623853
0.163389 -0.107305 0.938492
-0.353447 -0.0531768 0.763952
0.0302068 0.124456 0.83996
0.0368878 0.0136286 0.753517
-0.775738 -0.190883 1.2039
0.111746 0.183779 0.907346
0.149578 -0.180891 0.955617
0.196461 0.0819533 1.20886
-0.144609 0.132311 0.898174
-0.157809 0.145153 0.984017
-0.871083 -0.276844 1.2224
-0.0288517 0.0730864 0.681206
0.125352 -0.149765 0.888494
-0.684947 0.152421 1.01143
0.235413 0.0455849 0.543196
0.212986 0.0548364 1.10951
0.478766 0.119778 1.29312
0.38333 -0.354832 1.05803
-0.0256407 0.165888 0.98815
0.0376422 0.157034 0.831025
-0.244952 -0.0849202 0.686058
-0.404031 -0.0381001 0.789356
0.308199 0.123889 0.964525
-0.992094 -0.291135 1.40865
0.235936 -0.34277 1.02711
0.477679 -0.2936 0.929305
-0.252701 -0.31683 0.879582
-0.440391 -0.0455668 0.815863
-0.286162 0.191409 0.83187
-0.0233454 -0.0459182 0.168225
-0.35553 -0.0367346 0.755107
0.0460467 0.169507 0.870449
0.0344381 0.0103197 0.716288
0.148083 -0.301396 1.03373
-0.951599 -0.20291 1.3889
-0.989268 -0.291527 1.40677
-0.497537 -0.379783 1.11269
-0.239674 0.127619 0.911296
0.118119 -0.139102 0.827163
-0.687013 -0.40798 1.22309
0.153623 -0.186036 0.9815
0.0663525 -0.317516 0.899503
-0.0527361 0.0211994 0.627094
0.378834 -0.061263 1.0981
0.032674 0.135331 0.89374
-0.320971 -0.0351264 0.741841
0.149786 -0.0551967 0.90467
-0.665584 -0.406234 1.19741
-0.133639 -0.041277 0.464328
-0.20358 0.0313736 0.828606
-0.192049 -0.0491772 0.592755
0.0988333 0.183933 0.920844
0.269971 0.213754 0.629938
0.204157 -0.210345 1.09838
-0.401198 -0.0586583 0.866382
-0.236144 0.128567 0.890334
-0.407363 0.123163 0.999949
0.129955 0.11805 0.862235
0.143176 -0.168803 0.916428
-0.236096 0.20953 0.631968
0.153978 -0.336602 1.05897
-0.102127 0.201355 0.62708
-0.0181409 0.0919236 0.586378
0.10111 0.147559 0.787305
0.0706958 -0.313293 0.938072
-0.915643 -0.322024 1.41962
0.126643 -0.310001 0.998391
0.479966 0.181271 0.950358
-0.762068 -0.183291 1.21514
-0.503505 -0.129642 1.10644
0.021072 0.0256598 0.657407
-0.57561 -0.143734 1.17899
-0.893833 -0.192801 1.30558
-0.368944 -0.0947938 0.947415
-0.304469 0.205694 0.881324
-0.376307 0.108669 1.12858
-0.753683 -0.435054 1.32229
-0.3347 -0.0518999 0.894466
-0.113552 -0.00772703 0.622876
0.260026 -0.0618809 0.947304
-0.0582395 0.0615917 0.514984
-0.0728128 0.028791 0.724975
-0.327357 -0.0502785 0.870759
0.110513 -0.133543 0.800754
-0.589515 -0.160497 1.18722
0.252677 0.0485316 0.582683
-0.814564 -0.288445 1.27823
0.156083 -0.215945 0.996071
-0.416468 -0.0644856 1.03906
-0.202486 0.0323821 0.826052
-0.372732 -0.169979 0.92488
-0.91804 -0.223575 1.44933
-0.925881 -0.197267 1.34579
0.219236 -0.176713 0.882163
-0.793504 -0.225489 1.37615
-0.858938 -0.26738 1.41
-0.727205 -0.434478 1.279
-0.566766 0.0437356 0.897827
0.158833 -0.348902 1.08608
-0.772577 -0.193067 1.36954
-0.37935 -0.0545206 0.973048
-0.0749174 0.0293396 0.768185
-0.298064 -0.154577 0.794067
-0.236727 0.128276 0.889761
0.156309 -0.343966 1.0769
0.204329 -0.344706 1.05241
-0.314257 -0.0300831 0.725157
-0.963856 -0.205094 1.40099
0.31269 0.208484 0.787844
-0.949205 -0.333565 1.47635
-0.531459 -0.138346 1.16186
-0.946939 -0.225867 1.47082
-0.2647 -0.0444775 0.712527
0.0381933 -0.0943893 0.63844
-0.0666098 0.0246024 0.663372
-0.331414 -0.0365734 0.799376
-0.221809 0.0369017 0.911262
0.324055 0.206874 0.827261
-0.35637 -0.108744 0.922235
-0.0145019 0.0807991 0.736315
-0.414687 -0.081119 0.944202
-0.208416 0.0348535 0.857535
0.105481 -0.149763 0.710496
-0.0564817 -0.0139712 0.588469
-0.153734 0.0736368 0.593155
-0.949333 -0.334463 1.47272
-0.506615 -0.387241 1.13413
-0.331522 -0.172787 0.901592
-0.413856 -0.0533008 1.05318
-0.720142 -0.304437 1.31913
0.156729 -0.21453 1.04166
0.330431 0.137211 0.978119
-0.972865 -0.557537 1.46551
-0.96277 -0.305236 1.34886
-0.0785755 0.068425 0.756818
0.292382 0.0433746 1.07634
-0.422758 0.112434 1.05798
0.502067 -0.0417059 1.01024
-0.181428 0.163573 0.769945
0.191402 -0.217437 1.11452
-0.954719 -0.231498 1.49738
-0.0678134 -0.187164 0.596162
-0.759655 -0.190291 1.34569
-0.942903 -0.393929 1.4442
-0.273017 0.179069 0.810895
0.126932 0.13251 0.910984
0.177259 0.136056 1.07384
-0.3665 -0.0573383 0.979974
-0.10093 -0.0182049 0.62151
-0.0568535 -0.0105106 0.672172
-0.844427 -0.217881 1.33471
-0.204482 0.0263867 0.823554
-0.411488 -0.212166 1.00194
-0.199712 -0.0861127 0.708065
-0.373964 -0.185136 0.835006
-0.861299 -0.266843 1.39143
0.167041 -0.223095 1.06046
0.455678 0.146971 1.36035
0.368222 -0.0561549 1.06582
-0.691689 -0.294673 1.26982
-0.240041 0.0310072 0.958044
-0.729718 0.0494781 1.09129
-0.349372 0.236514 1.02234
-0.822406 -0.245128 1.32329
0.160727 -0.195458 1.04859
-0.73288 -0.439947 1.32859
-0.364108 -0.189266 0.986054
-0.921472 -0.324486 1.43038
-0.0651582 -0.179735 0.576421
-0.539835 -0.343528 1.20559
-0.0568862 0.0236461 0.663766
-0.105942 -0.240745 0.729979
0.29463 -0.422356 1.25447
-0.776617 -0.465306 1.40732
0.0666549 0.0503958 0.706999
-0.401854 -0.056469 0.779646
-0.248339 0.221267 0.664723
-0.413339 -0.0640273 1.10461
0.411065 0.0894836 0.913784
0.0828706 -0.060651 0.635655
-0.223266 0.0403945 0.922087
-0.672872 -0.26206 1.34767
-0.760194 -0.331848 1.39477
-0.758045 -0.389392 1.3627
0.374509 -0.0575729 1.08379
-0.502537 -0.432378 1.20419
0.156086 -0.31759 1.08843
-0.666857 -0.261993 1.34074
-0.988122 -0.361578 1.52032
0.324096 0.227523 0.79457
-0.315254 0.144592 0.701601
-0.914234 -0.284997 1.48676
-0.120575 -0.00805905 0.666663
-0.539361 -0.27375 1.21694
-0.675547 0.152528 0.971409
0.0144662 0.0529769 0.528032
-0.975441 -0.345156 1.52267
0.0395644 -0.0819633 0.685677
-0.117835 -0.00819378 0.657522
-0.483415 -0.0977548 1.04558
-0.334305 0.155641 0.747106
-0.230183 -0.066425 0.718877
-0.824266 -0.255057 1.3364
-0.0623177 -0.00431631 0.545401
-0.502567 -0.234284 1.15727
-0.250057 -0.1277 0.6465
-0.00603137 0.169409 0.880139
-0.538115 -0.341634 1.19853
-0.695891 -0.27098 1.38683
-0.311661 0.1667 0.834205
0.0231325 0.0282083 0.714814
-0.786624 -0.366657 1.41627
-0.289868 -0.329319 1.00575
0.476611 0.128598 0.990128
0.012746 0.0251548 0.717524
0.46197 0.104642 1.23908
-0.54382 -0.480789 1.25617
-0.31613 -0.0395153 0.773236
-0.247185 -0.338278 0.918466
-0.702579 -0.449347 1.2714
-0.343009 -0.0962578 1.01305
0.00366507 -0.260381 0.765826
-0.234103 -0.258262 0.873716
-0.488627 -0.424713 1.17559
-0.65078 -0.254573 1.30094
0.160949 -0.330492 1.12887
-0.608312 -0.181341 1.27154
0.0442505 -0.120758 0.711225
-0.303919 -0.0402289 0.786984
-0.405074 0.0992006 1.22947
-0.800813 -0.253001 1.31114
-0.285064 0.191069 0.833516
0.173899 -0.352805 1.20484
0.136168 0.0622574 0.437862
-0.340283 -0.0372652 0.823609
0.420041 0.0829988 0.967559
-0.396791 -0.0853542 1.06761
-0.870471 -0.25045 1.49667
-0.0619168 -0.00985348 0.463223
-0.666909 -0.169035 1.22595
0.105354 -0.0818487 0.784496
0.428935 0.117634 1.02735
-0.389325 0.186051 0.874985
-0.527467 -0.465378 1.21876
-0.745305 -0.226019 1.36433
0.168134 -0.235338 1.06264
0.509404 0.10622 1.03568
-0.127923 -0.243473 0.723086
0.191522 -0.26623 1.20613
-0.706004 -0.242141 1.39943
-0.427051 0.131888 1.16882
-0.352992 -0.0984924 1.03977
-0.356684 -0.0628773 0.80083
-0.515715 -0.259285 1.25821
-0.876968 -0.230479 1.44991
-0.468008 -0.372037 1.23651
-0.36109 -0.100193 1.06437
-0.59034 -0.305382 1.33641
-0.882003 -0.279532 1.44173
-0.552299 -0.353248 1.23407
-0.340001 -0.0947376 1.00159
-0.99462 -0.351178 1.54553
-0.320636 -0.400656 1.10824
-0.817007 -0.472339 1.43427
-0.262983 0.0340216 1.05004
0.052957 -0.139652 0.785822
0.398128 0.129865 1.19469
-0.705466 0.128087 1.03213
-0.343332 -0.0871318 1.02081
0.150883 -0.173141 1.04091
-0.745924 -0.290919 1.48807
0.472002 0.136837 1.12477
0.0317765 0.00876269 0.624328
0.0981975 0.163123 0.748346
-0.0670878 -0.00597252 0.637181
-0.722001 -0.282817 1.44034
0.0790051 0.136318 0.772237
0.0531359 -0.117784 0.815638
-0.0858025 0.0984011 0.752198
-0.285676 -0.0364654 0.976154
0.366035 0.171918 1.02963
-0.49715 -0.0360535 0.744827
0.371907 -0.340342 1.03022
0.00757915 -0.0199431 0.796561
-0.412071 0.0696475 1.25332
-0.548969 -0.142266 1.13037
-0.321592 -0.461112 1.18091
-0.555806 -0.26194 1.28005
0.0070568 -0.019128 0.772369
-0.0883903 0.100424 0.765543
-0.57711 -0.44074 1.28706
0.460715 0.107157 1.24049
-0.248247 0.0332015 0.996513
0.31849 -0.356076 1.07436
0.0830487 -0.366427 1.08081
-0.0862139 0.0938847 0.763995
-0.377858 0.0640077 1.2176
-0.413262 0.0567889 1.28899
-0.670152 -0.154697 1.24241
-0.260573 -0.036903 0.934447
0.172141 -0.239584 1.10498
-0.297702 -0.0821773 0.966096
0.00388791 -0.0308707 0.729813
-0.57487 -0.366075 1.27142
0.024036 -0.076385 0.710502
0.0492717 -0.1121 0.777035
-0.052861 -0.00920964 0.64432
-0.218034 -0.147517 0.806407
-0.433733 -0.211667 1.01186
0.00092846 -0.033183 0.700089
0.363406 -0.0567607 1.05048
-0.417172 0.00287256 0.825093
-0.0999268 0.201712 0.642028
-0.199502 -0.42693 1.11085
-0.254992 0.125013 0.9874
0.350196 -0.354329 1.05742
-0.570329 -0.295429 1.29378
-0.0967218 -0.00629415 0.71346
0.375212 -0.0988196 1.22853
-0.725337 -0.462684 1.30957
-0.252239 -0.0314608 0.846231
0.0547194 -0.111806 0.833908
-0.277031 -0.0379152 0.994023
0.254852 0.163198 0.99428
-0.280724 -0.0390682 1.00597
-0.283955 -0.0378328 1.01646
-0.476246 -0.430129 1.14414
-0.210091 0.0353135 0.881559
0.111694 -0.193798 0.979656
0.0480317 -0.0919666 0.801796
0.0244193 -0.0769028 0.710991
-0.182733 0.160764 0.678963
-0.288006 0.167931 0.818429
0.0265862 0.0211451 0.567549
-0.0379365 -0.0101638 0.698312
-0.617881 -0.183237 1.20614
-0.356593 -0.105697 0.994742
-0.255184 -0.073379 0.836509
0.0746985 -0.167271 0.914444
-0.0607069 -0.0128329 0.630524
-0.647485 -0.171224 1.33102
0.0229331 -0.000470522 0.617353
-0.382601 0.129916 1.06746
-0.388912 -0.108683 1.14549
-0.888351 -0.438458 1.3378
-0.330476 0.174623 0.8734
-0.857137 -0.255105 1.37233
0.00585091 -0.0315317 0.81776
-0.0561924 0.126863 0.854225
0.062405 -0.156006 0.893112
0.118208 -0.203187 1.03503
-0.333505 -0.0520607 0.803066
0.00880571 -0.365318 0.98552
-0.315573 -0.0875538 1.02596
-0.235411 0.111893 0.910407
0.377622 -0.0577417 1.09438
-0.324737 -0.0507807 0.873033
0.122999 -0.158722 0.847238
-0.63978 -0.222323 1.27283
-0.727122 -0.387726 1.32249
-0.704295 -0.438692 1.28361
0.0837305 0.140011 0.691049
-0.969782 -0.245198 1.52356
0.238765 0.153748 0.944699
-0.532483 -0.27427 1.29019
-0.389653 -0.335032 1.17482
0.147729 0.130071 0.972029
0.0800531 -0.176613 0.974115
0.0161237 0.0213783 0.717123
-0.0370102 -0.0597627 0.269837
0.535889 -0.174711 1.01299
-0.740717 -0.314995 1.31566
-0.714307 -0.24641 1.41287
0.0885245 -0.38321 1.11913
-0.705859 -0.406734 1.22304
0.0866957 0.14867 0.635379
0.00442836 -0.0316335 0.81575
0.120315 0.202162 1.00141
-0.289939 -0.347339 1.07588
0.107005 -0.183495 1.04293
-0.354601 -0.0739424 0.796878
-0.0737841 -0.00925143 0.730182
-0.386013 0.095267 1.20448
0.063161 -0.166495 0.912079
-0.923211 -0.21921 1.42921
-0.658316 0.120238 0.960833
0.00400155 -0.0358831 0.834022
0.0636978 -0.17557 0.93412
-0.488901 0.106681 0.726559
-0.374694 -0.0937424 1.11151
-0.0812449 -0.0168513 0.673001
0.0627372 -0.141764 0.805367
-0.410651 -0.343364 1.24012
-0.379572 -0.327695 1.14525
-0.0626948 -0.0116583 0.730927
-0.517643 -0.0308111 0.759424
-0.472852 -0.0755135 1.26931
-0.306898 0.20278 0.908409
-0.404371 -0.0350328 0.71725
-0.285342 0.131438 0.695514
0.178192 0.16895 0.800489
-0.0720625 -0.0085229 0.705174
-0.566028 -0.43362 1.26493
-0.767183 0.151693 1.05087
0.40995 0.115816 1.15081
-0.225445 0.202925 0.71578
-0.28862 -0.114472 1.01952
-0.743271 -0.274136 1.20077
-0.0659836 -0.00957729 0.787477
-0.328941 -0.0612723 0.930431
-0.750802 -0.368109 1.35226
-0.297722 -0.0434229 1.06017
-1.05908 -0.305498 1.7443
-0.59825 -0.30847 1.35
-0.203058 0.180488 0.737267
-0.0948371 -0.177465 0.618272
-0.367776 -0.505107 1.34743
-0.514238 0.0703136 1.60316
-0.958791 -0.305419 1.52371
0.0321732 -0.11452 0.698998
0.466385 -0.0206395 1.16436
-0.55717 0.0783611 1.73469
-0.278265 -0.110916 0.982772
0.0855002 0.126051 0.691911
-0.0197521 -0.0831485 0.594551
-0.639721 -0.324715 1.4302
-0.0954437 -0.0175006 0.743207
0.010848 -0.433137 1.16931
-0.0130213 0.0743766 0.661184
-0.0126686 0.0747582 0.643808
-0.00220817 0.0262389 0.786319
-0.00317291 -0.122932 0.681775
-0.0130111 -0.0268258 0.669416
0.03339 0.143831 0.767486
-0.0742289 0.0316927 0.765412
-0.229165 0.205827 0.726546
-0.49068 -0.0392456 0.845158
0.159676 -0.105179 0.911618
0.485081 -0.257132 1.17951
-0.0735353 0.0315679 0.763508
0.166976 -0.109478 0.953587
-0.375516 0.180154 0.834476
-0.289929 0.14985 0.904068
0.312376 -0.06798 1.04497
0.227314 0.0977886 1.1686
-0.36156 0.0972092 0.897372
-0.447799 0.242539 1.68273
0.160861 0.126288 1.01016
0.000619384 -0.138489 0.778705
0.174001 -0.212345 1.08135
0.209262 0.0881483 1.07062
-0.363458 -0.440749 1.33929
-0.375723 -0.40091 1.30386
-0.227191 -0.278136 0.840939
0.0406779 -0.0728509 0.659736
-0.0669097 -0.0106146 0.664978
-0.501903 0.179592 0.838964
0.00661481 -0.0573065 0.74744
0.033428 0.185616 0.673577
-0.858678 -0.374669 1.33348
-0.552441 0.0453575 0.857843
0.104376 0.17489 0.732886
0.0531394 0.186657 0.807518
-0.458278 -0.135694 1.32384
-0.0705004 0.0303029 0.734866
-0.0173775 -0.0159769 0.810648
0.373065 0.121517 1.1192
0.0521764 -0.107571 0.800387
-0.135201 -0.0231261 0.793825
0.32727 0.147628 1.03316
-0.749913 -0.230118 1.42211
0.0536579 -0.101139 0.890284
-0.148123 -0.0252327 0.872092
-0.312478 -0.298576 1.16662
-0.304702 -0.292088 1.06453
0.0139386 -0.107518 0.760075
0.212059 0.0551229 1.10605
-0.0855202 -0.0161533 0.709908
0.0420772 0.197661 0.749349
0.048751 -0.139145 0.8524
0.0969258 -0.21972 1.26238
0.181299 -0.215991 1.06982
-0.440044 0.168697 0.799367
-0.504269 -0.0436119 0.757208
-0.676757 -0.17008 1.36834
-0.36282 -0.0853045 1.11105
-0.307615 -0.122212 1.07331
0.211261 0.0540415 1.09962
-0.333938 -0.0887807 1.07426
-0.327994 -0.128578 1.1451
-0.315703 -0.0356366 0.734918
0.26246 -0.225494 1.14977
-0.0589857 -0.0116607 0.686859
-0.893664 -0.39821 1.4104
-0.0548814 -0.00821892 0.679206
0.0143332 -0.110567 0.781709
-0.340087 -0.0834982 1.01119
-0.0630206 -0.011579 0.731789
-0.374662 -0.113106 1.23066
0.0491461 -0.139323 0.857754
-0.268175 -0.169913 0.973321
0.00856906 -0.0641538 0.813256
-0.512762 -0.265325 1.16275
